ncols 252
nrows 32
xllcorner 280.008544922
yllcorner 43.0745333995
cellsize 0.002197265625
nodata_value -2147483648
213.0097963968708 213.0 213.0 212.01082587318714 213.0 212.9889699340002 213.00020419281265 213.00020419281265 213.0 213.0 213.0 213.0 213.0 213.0 213.0 213.0 213.0 213.0 213.0 213.0 213.0 213.0 213.0 213.0 213.0 213.0 213.0 213.0 213.0 213.0 212.9902036031292 213.9695813330713 213.9695813330713 213.9695813330713 213.9695813330713 215.96875604956762 217.97978611556738 220.95916384550947 220.95916384550947 220.95916384550947 220.95916384550947 220.95916384550947 219.96978552588396 219.97958192275473 219.97958192275473 218.97958192275473 216.97937772994206 215.97958192275473 212.99040779594185 211.9902036031292 212.0 212.0 212.0 212.0 212.0 212.0 212.0 212.0 211.9902036031292 212.0 212.0 212.0 212.0 212.0 212.0 211.98999941031656 212.00102947631635 213.01000058968344 212.99897052368365 212.98917412681286 211.9902036031292 212.98917412681286 212.98917412681286 212.98917412681286 211.9902036031292 213.0 213.0 213.0 213.00020419281265 213.00020419281265 213.0 213.0 213.0 213.0 213.00020419281265 213.0 212.0 210.01082587318714 210.0 209.0 208.0 208.0 208.0 208.0 207.0 206.0 206.0 205.0 204.0 209.0 211.0 210.0 210.0 209.0 207.0 207.0 206.0 204.0 203.0 201.0 199.0 198.0 197.0 197.0 197.0 197.0 197.0 197.0 197.0 197.0 197.0 197.0 197.0 197.0 197.0 197.0 197.0 197.0 197.0 197.0 197.0 197.0 197.0 197.0 197.0 197.0 197.0 197.0 197.0 197.0 197.0 197.0 197.0 197.0 197.0 197.0 197.0 197.0 197.0 197.0 197.0 197.0 197.0 197.0 197.0 197.0 197.0 197.0 196.9902036031292 197.0 197.0 197.0 197.0 197.0 197.0 197.0 197.0 197.0 197.0 197.0 197.0 197.0 196.0 196.0 196.0 196.0 196.0 195.0 194.0 194.0 193.0 192.0 191.97937772994206 192.98937831962553 193.00020419281265 193.97958192275473 194.98937831962553 193.97958192275473 193.98937831962553 193.00020419281265 192.0 192.0 192.0 192.0 192.0 192.0 194.0097963968708 195.00959220405815 196.01082587318714 197.0 197.0 197.0 196.0 195.0 195.0 195.0 195.0 195.0 195.0 195.0 195.0 195.0 195.0 195.0 195.0 195.0 194.99979580718735 195.01062168037447 195.01062168037447 196.01082587318714 197.0 197.0 197.0 197.0 197.0 197.0 197.0 197.0 197.0 197.0 197.0 197.0097963968708 197.02938919061233 194.07166320704454 192.08105121829004 189.0612542317358 189.07208010492295 189.07084643579392 187.0718759121103 186.0916728986645 184.13168376965135 181.17169464063818 179.18252051382532 180.16189824376738 181.11044040890238 182.0489819843539 182.0097963968708 182.0 184.98917412681286 189.9699897186966 190.95916384550947 187.97958192275473
213.0465372338102 213.0 213.0 213.1190493628305 213.0465372338102 212.29242001385649 212.63506785712323 212.63506785712323 213.0 213.0 213.0 213.0 213.0 213.0 213.0 213.0 213.0 213.0 213.0 213.0 213.0 213.0 213.0 213.0 213.0 213.0 213.0 213.0 213.0 213.0 213.0 212.9274878709797 212.9274878709797 212.9274878709797 212.9274878709797 213.4900435990826 216.24416081903632 218.21818592382624 218.17164869001604 218.17164869001604 218.17164869001604 218.17164869001604 218.60909296191312 218.56255572810292 218.56255572810292 217.60909296191312 215.9740251047899 214.60909296191312 212.63506785712323 212.0 212.0 212.0 212.0 212.0 212.0 212.0 212.0 212.0 212.0 212.0 212.0 212.0 212.0 212.0 212.0 212.41146937668697 213.1190493628305 212.63506785712323 211.9274878709797 211.9274878709797 212.0 211.9274878709797 211.9274878709797 211.9274878709797 212.0 213.0 213.0 213.0465372338102 212.63506785712323 212.63506785712323 213.0465372338102 213.0465372338102 213.0 213.0465372338102 212.63506785712323 213.0 212.0 211.0725121290203 210.0 209.0 208.0 208.0 208.0 208.0 207.0 206.0 206.0 205.0 204.0 209.0 211.0 210.0 210.0 209.0 206.9534627661898 207.0 206.0 204.0 203.0 201.0 199.0 198.0 197.0 197.0 197.0 197.0 197.0 197.0 197.0 197.0 197.0 197.0 197.0 197.0 197.0 197.0 197.0 197.0 197.0 197.0 197.0 197.0 197.0 197.0 197.0 197.0 197.0 197.0 197.0 197.0 197.0 197.0 197.0 197.0 197.0 197.0 197.0 197.0 197.0 197.0 197.0 197.0 197.0 197.0 197.0 197.0 197.0 197.0 197.0 197.0 197.0 197.0 197.0 197.0 197.0 197.0 197.0 197.0 197.0 197.0 197.0 197.0 196.0 196.0 196.0 196.0 196.0 195.0 194.0 194.0 193.0 192.0 190.9274878709797 191.60909296191312 192.68160509093343 192.56255572810292 193.60909296191312 192.56255572810292 192.56255572810292 192.6350678571232 192.0 192.0 192.0 192.0 192.0 192.0 194.0465372338102 195.411469376687 197.1190493628305 197.0465372338102 197.0 197.0 196.0 195.0 195.0 195.0 195.0 195.0 195.0 195.0 195.0 195.0 195.0 195.0 195.0 195.0 195.3649321428768 196.43744427189708 196.43744427189708 197.0725121290203 197.0 197.0 197.0 197.0 197.0 197.0 197.0 197.0 197.0 197.0 197.0 197.0 197.0 197.21753638706093 195.94740067281447 193.21925834807087 194.33830771090135 193.63072772475783 192.65670261996792 191.19869600947072 190.63614028136783 189.0270473194547 188.09955944847502 188.0735845532649 184.90086343900427 182.0 182.0 182.0 183.9274878709797 188.24416081903632 188.21818592382624 186.65563019572335
212.19116710302626 213.06916754404344 213.06916754404344 212.19116710302626 212.19116710302626 213.09084893874984 211.90915106125016 211.90915106125016 213.06916754404344 213.0 213.0 213.0 213.0 213.0 213.0 213.0 213.0 213.0 213.0 213.0 213.0 213.0 213.0 213.0 213.0 213.0 213.0 213.0 213.0 213.0 213.0 213.0 213.0 213.0 213.0 212.9783186052936 214.2169718576569 215.40813896068315 216.28613940170032 216.28613940170032 216.28613940170032 216.2169718576569 217.2386532523633 218.04748614933703 218.04748614933703 216.2386532523633 215.2603346470697 213.2386532523633 211.9783186052936 212.0 212.0 212.0 212.0 212.0 212.0 212.0 212.0 212.0 212.0 212.0 212.0 212.0 212.0 212.0 212.0 212.21284849773267 212.19116710302626 211.9783186052936 212.0 212.0 212.0 212.0 212.0 212.0 212.0 213.06916754404344 213.06916754404344 212.19116710302626 211.9783186052936 211.9783186052936 212.19116710302626 212.19116710302626 213.06916754404344 212.19116710302626 211.9783186052936 213.0 212.0 211.0 210.0 209.0 208.0 208.0 208.0 208.0 207.0 206.0 206.0 205.0 204.0 209.06916754404344 211.0 210.0 210.0 209.0 207.80883289697374 207.0 206.0 204.0 203.0 201.0 199.0 198.0 197.0 197.0 197.0 197.0 197.0 197.0 197.0 197.0 197.0 197.0 197.0 197.0 197.0 197.0 197.0 197.0 197.0 197.0 197.0 197.0 197.0 197.0 197.0 197.0 197.0 197.0 197.0 197.0 197.0 197.0 197.0 197.0 197.0 197.0 197.0 197.0 197.0 197.0 197.0 197.0 197.0 197.0 197.0 197.0 197.0 197.0 197.0 197.0 197.0 197.0 197.0 197.0 197.0 197.0 197.0 197.0 197.0 197.0 197.0 197.0 196.0 196.0 196.0 196.0 196.0 195.0 194.0 194.0 193.0 192.0 191.0 190.16948570831985 191.2386532523633 192.04748614933703 192.2386532523633 192.04748614933703 192.04748614933703 192.04748614933703 192.06916754404344 192.06916754404344 192.06916754404344 192.0 192.0 192.0 193.2603346470697 195.35118358581954 196.2603346470697 196.2603346470697 197.0 197.0 196.0 195.0 195.0 195.0 195.0 195.0 195.0 195.0 195.0 195.0 195.0 195.0 195.0 195.0 196.0216813947064 197.09084893874984 197.09084893874984 197.0 197.0 197.0 197.0 197.0 197.0 197.0 197.0 197.0 197.0 197.0 197.0 197.0 197.0 197.0 197.0433627894128 196.68270997806673 196.87387708109296 196.89555847579936 196.70439137277313 196.30037577201423 196.32205716672064 196.15257145840079 195.08340391435735 194.20540347334014 186.71386059829968 182.0 182.0 182.0 184.06916754404344 186.28613940170032 185.47730650472658 184.498987899433
212.0 211.950342957729 211.950342957729 212.08961438621247 212.08961438621247 212.03995734394147 213.049657042271 213.049657042271 212.03995734394147 213.0 213.0 213.0 212.9028513967685 213.0 213.0 213.0 213.0 213.0 213.0 213.0 213.0 213.0 213.0 213.0 213.0 213.0 213.0 213.0 213.0 213.0 213.0 213.0 213.0 213.0 213.0 213.0 212.950342957729 213.86072857151652 213.81860574626447 213.908220132477 213.908220132477 214.8682627885355 215.86072857151652 216.8682627885355 216.8682627885355 214.957877174748 213.8682627885355 211.950342957729 212.0 212.0 212.0 212.0 212.0 212.0 212.0 212.0 212.0 212.0 212.0 212.0 212.0 212.0 212.0 212.0 212.0 212.0 212.0 212.0 212.0 212.0 212.0 212.0 212.0 212.0 212.0 211.950342957729 211.950342957729 212.0 212.0 212.0 212.0 212.0 211.950342957729 212.0 212.08961438621247 212.9028513967685 212.0 211.0 209.992465782981 208.992465782981 207.992465782981 207.992465782981 207.98493156596197 207.98493156596197 206.992465782981 205.992465782981 206.0 204.992465782981 203.992465782981 207.94280874070998 211.0 210.0 210.0 209.0 208.0 207.0 206.0 204.0 203.0 201.0 199.0 198.0 197.0 197.0 197.0 197.0 197.0 197.0 197.0 197.0 197.0 197.0 197.0 197.0 197.0 197.0 197.0 197.0 197.0 197.0 197.0 197.0971486032315 197.0 197.0 197.0 197.0 197.0 197.0 197.0 197.0 197.0 197.0 197.0 197.0 197.0 197.0 197.0 197.0 197.0 197.0 197.0 197.0 197.0 197.0 197.0 197.0 197.0 197.0 197.0 197.0 197.0 197.0 197.0 196.992465782981 197.0 197.0 197.0 197.0 197.0 197.0 197.0 197.007534217019 196.0 196.0 196.0 196.0 196.0 195.0 194.0 194.0 193.0 192.0 191.0 190.0 189.86072857151652 190.8682627885355 190.957877174748 190.8682627885355 190.8682627885355 190.8682627885355 190.8682627885355 190.8682627885355 190.957877174748 191.91038561378753 192.007534217019 192.0 191.950342957729 192.81107152924545 194.8682627885355 194.950342957729 197.007534217019 197.0 196.0 195.0 195.0 195.0 195.0 194.992465782981 194.98493156596197 194.98493156596197 194.98493156596197 194.992465782981 194.992465782981 195.0 195.0 195.0 196.0 195.86072857151652 195.86072857151652 196.9179198308065 197.007534217019 197.007534217019 197.0 197.0 197.0 197.007534217019 197.0 197.0 197.0 197.0 197.0 197.0 197.007534217019 197.007534217019 197.0 197.0 197.0 197.0 197.0 197.0 197.0 197.0 197.049657042271 197.10684830156103 189.02476813236757 182.0 182.0 182.0 182.957877174748 183.72145714303298 182.81107152924545 181.90068591545798
212.0 212.0 212.0 213.0622391201278 213.0622391201278 213.0622391201278 213.0 213.0 213.0622391201278 213.0 213.0 213.06275871992597 212.50311763470364 213.0 213.0 213.0 213.0 213.0 213.0 213.0 213.0 213.0 213.0 213.0 213.0 213.0 213.0 213.0 213.0 213.0 213.0 213.0 213.0 213.0 213.0 213.0 213.0 212.9377608798722 212.43516284496678 213.49740196509455 213.49740196509455 213.43516284496678 215.0005195997982 215.49792156489275 215.49792156489275 214.56016068502055 212.43516284496678 212.0 212.0 212.0 212.0 212.0 212.0 212.0 212.0 212.0 212.0 212.0 212.0 212.0 212.0 212.0 212.0 212.0 212.0 212.0 212.0 212.0 212.0 212.0 212.0 212.0 212.0 212.0 212.0 212.0 212.0 212.0 212.0 212.0 212.0 212.0 212.0 212.0 213.12499784005377 212.50311763470364 211.93724128007403 210.93724128007403 210.43983931497945 209.43983931497945 208.37708059505349 208.37708059505349 208.87967862995896 208.87967862995896 207.43983931497945 206.43983931497945 205.93724128007403 205.50259803490545 204.43983931497945 208.43983931497945 210.93724128007403 210.0 210.0 209.0 208.0 207.0 206.0 204.0 203.0 201.0 199.0 198.0 197.0 197.0 197.0 197.0 197.0 197.0 197.0 197.0 197.0 197.0 197.0 197.0 197.0 197.0 197.0 197.0 197.0 197.0 197.0 197.55964108522232 197.0 197.0 197.0 197.0 197.0 197.0 197.0 197.0 197.0 197.0 197.0 197.0 197.0 197.0 197.0 197.0 197.0 197.0 197.0 197.0 197.0 197.0 197.0 197.0 197.0 197.0 197.0 197.0 197.0 197.0 197.0 197.5653567548314 197.0 197.0 197.0 197.0 197.0 197.0 197.0 196.49740196509455 196.0 196.0 196.0 196.0 196.0 195.0 194.0 194.0 193.0 192.0 191.0 190.0 188.9377608798722 189.49792156489275 190.56016068502055 189.49792156489275 189.49792156489275 189.49792156489275 189.49792156489275 189.49792156489275 190.56016068502055 191.0005195997982 191.49740196509455 192.06275871992597 192.0 191.9377608798722 193.49792156489275 195.06275871992597 196.56016068502055 197.06275871992597 196.0 195.0 195.0 195.0 195.0 195.50259803490545 196.0051960698109 196.0051960698109 196.0051960698109 195.43983931497945 195.43983931497945 194.93724128007403 195.0 195.0 196.0 194.9377608798722 194.9377608798722 195.49792156489275 196.56016068502055 196.56016068502055 197.06275871992597 197.0 197.06275871992597 196.49740196509455 197.0 197.06275871992597 197.0 197.0 197.0 197.06275871992597 196.56016068502055 196.56016068502055 197.06275871992597 197.06275871992597 197.06275871992597 197.12551743985193 197.12551743985193 197.12551743985193 197.12551743985193 197.12551743985193 197.12551743985193 196.62291940494651 186.9953235299873 182.0 182.0 182.0 182.49740196509455 181.87552175974446 181.9377608798722 182.0
212.0 212.0 212.0 213.0485649780742 213.0485649780742 213.0 213.0 213.0 213.0485649780742 213.0 213.0 212.08616975333672 212.09327490887873 213.0485649780742 213.0485649780742 213.0485649780742 213.0 213.0 213.0 213.0 213.0 213.0 213.0 213.0 213.0 213.0 213.0 213.0 213.0 213.0 213.0 213.0 213.0 213.0 213.0 213.0 213.0 213.0 211.992894844458 212.992894844458 212.992894844458 213.0414598225322 214.08616975333672 214.0790645977947 214.12762957586892 213.12762957586892 211.992894844458 212.0 212.0 212.0 212.0 212.0 212.0 212.0 212.0 212.0 212.0 212.0 212.0 212.0 212.0 212.0 212.0 212.0 212.0 212.0 212.0 212.0 212.0 212.0 212.0 212.0 212.0 212.0 212.0 212.0 212.0 212.0 212.0 212.0 212.0 212.0 212.0 212.0 212.08616975333672 212.09327490887873 212.9623952247375 211.91383024666328 211.87237042413108 210.87237042413108 210.78620067079436 210.73763569272018 211.84187080441058 211.84187080441058 208.87237042413108 207.87237042413108 206.86526526858907 205.9585401774678 205.9209354022053 209.9209354022053 211.91383024666328 209.9514350219258 210.0 209.0 208.0 207.0 206.0 204.0 203.0 201.0 199.0 198.0 197.0 197.0 197.0 197.0 197.0 197.0 197.0 197.0 197.0 197.0 197.0 197.0 197.0 197.0 197.0 197.0 197.0 197.0 197.0 196.992894844458 197.0 197.0 197.0 197.0 197.0 197.0 197.0 197.0 197.0 197.0 197.0 197.0 197.0 197.0 197.0 197.0 197.0 197.0 197.0 197.0 197.0 197.0 197.0 197.0 197.0 197.0 197.0 197.0 197.0 197.0 197.0 197.09327490887873 197.0 197.0 197.0 197.0 197.0 197.0 197.0 195.992894844458 196.0 196.0 196.0 196.0 196.0 195.0 194.0 194.0 193.0 192.0 191.0 190.0 189.0 188.0790645977947 189.12762957586892 188.0790645977947 188.0790645977947 188.0790645977947 188.0790645977947 188.0790645977947 189.12762957586892 190.13473473141093 191.0414598225322 191.08616975333672 192.0485649780742 192.0 192.0790645977947 194.13473473141093 195.12762957586892 196.13473473141093 196.0485649780742 195.0 195.0 195.0 195.0 196.05567013361622 197.06277528915822 197.06277528915822 197.014210311084 196.9209354022053 196.9209354022053 195.91383024666328 194.9514350219258 195.0 196.0 195.0 195.0 194.0790645977947 195.12762957586892 195.12762957586892 196.13473473141093 197.0485649780742 196.13473473141093 196.0414598225322 197.0485649780742 196.08616975333672 197.0 197.0 197.0485649780742 196.13473473141093 195.12762957586892 195.12762957586892 196.13473473141093 196.13473473141093 196.13473473141093 195.1723395066734 195.1723395066734 195.1723395066734 195.1723395066734 195.22090448474762 195.26946946282183 194.26236430727982 185.12052442032692 182.0 182.0 182.0 181.992894844458 182.0 182.0 182.0
212.0 211.9777096678253 212.0 211.93041431867937 211.90812398650468 213.0 213.0 213.0 211.93041431867937 212.80468216506569 213.0222903321747 212.0 212.0 211.93041431867937 211.93041431867937 211.93041431867937 213.0 213.0 213.0 213.0 213.0 213.0 213.0 213.0 213.0 213.0 213.0 213.0 213.0 213.0 213.0 213.0 213.0 213.0 213.0 213.0 213.0 213.0 212.0 213.0222903321747 212.80468216506569 211.90812398650468 213.8269724972404 213.8269724972404 212.95270465085406 211.93041431867937 212.0 211.9777096678253 212.0 212.0 212.0 212.0 212.0 212.0 212.0 212.0 212.0 212.0 212.0 212.0 212.0 212.0 212.0 212.0 212.0 212.0 212.0 212.0 212.0 212.0 212.0 212.0 212.0 212.0 212.0 212.0 212.0 212.0 212.0 212.0 212.0 212.0 212.0 212.0 212.0 212.0 211.93041431867937 212.0 213.06958568132063 212.06958568132063 212.06958568132063 212.94385352770698 212.0 212.0 210.43793101901457 209.41564068683988 208.22032285190556 207.22032285190556 206.1507371705849 210.0 212.0 211.06958568132063 210.0 209.0 208.0 207.0 206.0 204.0 203.0 201.0 199.0 198.0 197.0 197.0 197.0 197.0 197.0 197.0 197.0 197.0 197.0 197.0 197.0 197.0 197.0 197.0 197.0 197.0 197.0 197.0 197.0 197.0 197.0 197.0 197.0 197.0 197.0 197.0 197.0 197.0 197.0 197.0 197.0 197.0 197.0 197.0 197.0 197.0 197.0 197.0 197.0 197.0 197.0 197.0 197.0 197.0 197.0 197.0 197.0 197.0 197.0 197.0 197.0 197.0 197.0 197.0 197.0 197.0 197.0 197.0 197.0 196.0 196.0 196.0 196.0 196.0 196.0 195.0 194.0 194.0 193.0 192.0 191.0 190.0 189.0 188.0 187.93041431867937 187.80468216506569 187.8269724972404 187.8269724972404 187.8269724972404 187.8269724972404 187.75738681591974 188.75738681591974 189.75738681591974 190.8269724972404 190.95270465085406 191.80468216506569 192.0222903321747 192.73509648374502 193.73509648374502 194.93041431867937 194.93041431867937 195.0 195.0 195.0 194.80468216506569 194.95270465085406 195.73509648374502 195.73509648374502 196.8269724972404 196.80468216506569 196.782391832891 196.19531783493431 196.26490351625498 195.1730275027596 195.9777096678253 195.0 195.0 194.0 193.73509648374502 193.95270465085406 194.73509648374502 195.75738681591974 194.73509648374502 194.75738681591974 195.75738681591974 196.0 197.0 197.0 195.75738681591974 194.75738681591974 193.95270465085406 193.95270465085406 194.75738681591974 194.75738681591974 194.75738681591974 194.8269724972404 194.8269724972404 194.8269724972404 194.8269724972404 193.75738681591974 192.6878011345991 191.6878011345991 183.93041431867937 182.0 182.0 182.0 182.0 182.0 182.0 182.0
211.927298251834 212.6395728949381 211.927298251834 211.927298251834 212.6395728949381 213.0 213.0 213.0 212.0 211.9540644262621 212.3604271050619 212.0 212.0 212.0 212.0 212.0 213.0 213.0 213.0 213.0 213.0 213.0 213.0 213.0 213.0 213.0 213.0 213.0 213.0 213.0 213.0 213.0 213.0 213.0 213.0 213.0 213.0 213.0 212.072701748166 212.4331288532279 212.02676617442813 212.7849763912701 212.38719327949002 212.38719327949002 212.3604271050619 212.0 212.0 212.6395728949381 211.927298251834 212.0 212.0 212.0 212.0 212.0 212.0 212.0 212.0 212.0 212.0 212.0 212.0 211.927298251834 211.927298251834 211.927298251834 212.0 211.927298251834 212.0 212.0 212.0 212.0 212.0 212.0 212.0 212.0 212.0 212.0 212.0 212.0 212.0 212.0 212.0 212.0 212.0 212.0 212.0 212.0 212.0 212.0 213.072701748166 212.0 212.0 211.9540644262621 212.0 212.0 212.80414579057987 212.371016937352 210.2523796154481 209.17967786728207 208.17967786728207 209.927298251834 212.0 211.0 210.0 209.0 208.0 207.0 206.0 204.0 203.0 201.0 199.0 198.0 197.0 197.0 197.0 197.0 197.0 197.0 197.0 197.0 197.0 197.0 197.0 197.0 197.0 197.0 197.0 197.0 197.0 197.0 197.0 197.0 197.0 197.0 197.0 197.0 197.0 197.0 197.0 197.0 197.0 197.0 197.0 197.0 197.0 197.0 197.0 197.0 197.0 197.0 197.0 197.0 197.0 197.0 197.0 197.0 197.0 197.0 197.0 197.0 197.0 197.0 197.0 197.0 197.0 197.0 197.0 197.0 197.0 197.0 197.0 196.0 196.0 196.0 196.0 196.0 196.0 195.0 194.0 194.0 193.0 192.0 191.0 190.0 189.0 188.0 188.0 186.9540644262621 186.314491531324 186.314491531324 186.314491531324 186.314491531324 186.314491531324 187.38719327949002 188.38719327949002 189.38719327949002 190.4331288532279 191.02676617442813 191.4331288532279 192.02676617442813 192.9540644262621 195.0 195.0 195.0 195.0 195.0 193.9540644262621 194.3604271050619 195.02676617442813 194.9540644262621 195.314491531324 195.9540644262621 196.59363732120022 197.0459355737379 197.0459355737379 196.685508468676 196.6395728949381 195.0 195.0 194.0 192.9540644262621 193.4331288532279 194.02676617442813 194.38719327949002 194.02676617442813 193.314491531324 194.314491531324 196.0 197.0 197.07270174816603 194.314491531324 193.314491531324 193.4331288532279 193.4331288532279 193.38719327949002 193.38719327949002 193.38719327949002 193.38719327949002 193.38719327949002 193.38719327949002 193.38719327949002 192.38719327949002 191.38719327949002 190.38719327949002 184.0 182.0 182.0 182.0 182.0 182.0 182.0 182.0
212.99104447445328 213.0083791469745 212.99928076567764 212.99928076567764 213.0083791469745 213.00823629122434 213.00823629122434 213.00823629122434 212.0 212.0 211.99985714424983 212.0 212.0 212.0 212.0 211.99176370877566 213.0 213.0 213.0 213.0 213.0 213.0 213.0 213.0 213.0 213.0 213.0 213.0 213.0 213.0 213.0 213.0 213.0 213.0 213.0 213.0 213.0 213.0 211.00895552554672 211.01704896102092 211.0171918167711 211.02629019806798 211.01704896102092 211.01704896102092 212.00809343547417 211.99176370877566 211.99176370877566 213.0083791469745 212.99104447445328 211.99176370877566 212.0 212.0 211.99176370877566 211.99176370877566 212.0 212.0 212.0 212.0 211.99176370877566 211.99176370877566 212.0 213.007517056902 212.99928076567764 212.99928076567764 212.01647258244873 213.01575334812634 212.01647258244873 212.0 212.0 212.0 212.0 212.0 211.99176370877566 212.0 212.0 212.0 212.0 211.99176370877566 212.0 212.0 212.0 212.0 211.99176370877566 211.99176370877566 212.0 212.0 212.0 212.0 212.00895552554672 212.0 212.0 212.0 212.0 212.0 212.0090983812969 213.00852200272465 211.9913301859536 211.9741383691825 210.96590207795816 210.9828081832289 212.0 211.0 210.0 209.0 208.0 206.99176370877566 206.0 204.0 203.0 201.0 199.0 198.0 197.0 197.0 197.0 197.0 197.0 197.0 197.0 197.0 197.0 197.0 197.0 197.0 197.0 197.0 197.0 197.0 197.0 197.0 197.0 197.0 197.0 197.0 197.0 197.0 197.0 197.0 197.0 197.0 197.0 197.0 197.0 197.0 197.0 197.0 197.0 197.0 197.0 197.0 197.0 197.0 197.0 197.0 197.0 197.0 197.0 197.0 197.0 197.0 197.0 197.0 197.0 197.0 197.0 197.0 197.0 197.0 197.0 197.0 197.0 196.0 196.0 196.0 196.0 196.0 196.0 195.0 194.0 194.0 193.0 192.0 191.0 190.0 189.0 188.0 188.0 187.0 185.99985714424983 185.99985714424983 185.99985714424983 185.99985714424983 185.99985714424983 186.00881266979655 187.01704896102092 188.01704896102092 189.01704896102092 190.0171918167711 190.01704896102092 191.00895552554672 193.00823629122434 195.0 194.99176370877566 195.0 195.0 195.0 194.0 193.99985714424983 194.00895552554672 195.0 194.9916208530255 196.0 197.00014285575017 197.0 197.0 197.00014285575017 197.00014285575017 195.0 195.0 194.0 193.0 192.00881266979655 193.0171918167711 193.00881266979655 193.0171918167711 192.99985714424983 193.99985714424983 196.0 197.0 196.00895552554672 194.00809343547417 193.00809343547417 192.01704896102092 192.01704896102092 192.01704896102092 192.01704896102092 192.01704896102092 192.01704896102092 192.01704896102092 192.01704896102092 192.01704896102092 191.01704896102092 190.00881266979655 189.01704896102092 184.00823629122434 182.0 182.0 182.0 182.0 182.0 182.0 182.0
212.68051878621952 211.9261163932489 211.9261163932489 211.9261163932489 211.9261163932489 211.9261163932489 211.9261163932489 211.9261163932489 212.0 212.0 212.0 212.0 212.0 212.0 211.95968132449664 213.0738836067511 213.0 213.0 213.0 213.0 213.0 213.0 213.0 213.0 213.0 213.0 213.0 213.0 213.0 213.0 213.0 213.0 213.0 213.0 213.0 213.0 213.0 213.0 211.0 209.9261163932489 209.96643506875225 209.6469538549718 209.32747264119132 209.32747264119132 210.32747264119132 212.51555853019693 213.1948396332612 211.96643506875225 213.0 213.11420228225447 212.44043724029052 212.04031867550336 212.79472106847402 213.11420228225447 212.04031867550336 212.31948121378048 212.31948121378048 212.3597998892838 212.83503974397738 212.87535841948073 211.44167492344582 210.2939077099436 211.32747264119132 211.3677913166947 209.61338892372405 209.2200241031925 209.2939077099436 211.1625123851687 211.12219370966534 211.48199359894915 211.44167492344582 211.7208374617229 213.11420228225447 212.3597998892838 211.95968132449664 212.04031867550336 211.76115613722627 212.55587720570026 212.08063735100671 212.0 212.04031867550336 212.4001185647872 212.79472106847402 213.0738836067511 212.08063735100671 212.08063735100671 212.08063735100671 212.04031867550336 211.95968132449664 211.95968132449664 212.0 211.95968132449664 212.0 212.0 212.0 211.9261163932489 212.0 212.75440239297063 212.82828599972174 212.0738836067511 211.95968132449664 211.0 209.95968132449664 208.95968132449664 207.95968132449664 208.0738836067511 206.0 204.0 203.0 201.0 199.0 198.0 197.0 197.0 197.0 197.0 197.0 197.0 197.0 197.0 197.0 197.0 197.0 197.0 197.0 197.0 197.0 197.0 197.0 197.0 197.0 197.0 197.0 197.0 197.0 197.0 197.0 197.0 197.0 197.0 197.0 197.0 197.0 197.0 197.0 197.0 197.0 197.0 197.0 197.0 197.0 197.0 197.0 197.0 197.0 197.0 197.0 197.0 197.0 197.0 197.0 197.0 197.0 197.0 197.0 197.0 197.0 197.0 197.0 197.0 197.0 196.0 196.0 196.0 196.0 196.0 196.0 195.0 193.95968132449664 194.0 193.0 192.0 191.0 190.0 189.0 188.0 188.0 187.0 186.0 186.0 186.0 186.0 186.0 186.0 185.9261163932489 186.60663517946844 187.60663517946844 188.60663517946844 188.9261163932489 191.0 191.9261163932489 195.0 196.39336482053156 195.31948121378048 195.0 195.0 194.0 194.0 194.0 195.0 196.0738836067511 196.31948121378048 197.0 196.68051878621952 197.04031867550336 197.04031867550336 196.68051878621952 195.0 195.0 194.0 193.0 192.0 191.9261163932489 192.68051878621952 191.9261163932489 193.0 194.0 196.0 197.0 195.68051878621952 192.6469538549718 191.6469538549718 190.6469538549718 190.6469538549718 190.60663517946844 190.6469538549718 190.6469538549718 190.6469538549718 190.6469538549718 190.6469538549718 190.6469538549718 189.6469538549718 189.7208374617229 187.60663517946844 182.88579771774553 182.0 182.0 182.0 182.0 182.0 182.0 182.0
211.97227736834003 212.0 212.0 212.0 212.0 212.0 212.0 212.0 212.0 212.0 212.0 212.0 212.0 212.0 212.7677617507971 213.0 213.0 213.0 213.0 213.0 213.0 213.0 213.0 213.0 213.0 213.0 213.0 213.0 213.0 213.0 213.0 213.0 213.0 213.0 213.0 213.0 213.0 213.0 211.0 210.0 209.30463058744746 208.27690795578746 207.2491853241275 207.32157766237202 208.32157766237202 209.55381591157493 210.91389176234236 211.377022925692 213.21717701473364 212.44941526393654 210.94161439400233 211.44941526393654 211.349300294032 212.5218076021811 211.377022925692 213.2448996463936 213.17250730814908 212.404745557352 210.65393088147945 209.88616913068236 208.62620824981946 207.55381591157493 209.32157766237202 208.55381591157493 207.58153854323493 206.48142357333037 206.55381591157493 206.75833152911787 207.5984856181595 207.85844649902236 208.62620824981946 210.4940849705211 212.5218076021811 212.4771378955965 212.98493876553073 211.44941526393654 209.65393088147945 208.78605416077784 210.68165351313945 212.21717701473364 211.377022925692 211.56459146831034 211.2045156175429 213.07239233824453 210.60926117489493 210.68165351313945 210.60926117489493 211.30463058744746 212.84015408904165 212.7677617507971 212.07239233824453 212.84015408904165 211.92760766175547 212.0 212.0 212.0 212.0 211.97227736834003 211.97227736834003 212.0 212.84015408904165 210.92760766175547 210.69536941255254 209.622977074308 208.69536941255254 208.0 206.0 204.0 203.0 201.0 199.0 198.0 197.0 197.0 197.0 197.0 197.0 197.0 197.0 197.0 197.0 197.0 197.0 197.0 197.0 197.0 197.0 197.0 197.0 197.0 197.0 197.0 197.0 197.0 197.0 197.0 197.0 197.0 197.0 197.0 197.0 197.0 197.0 197.0 197.0 197.0 197.0 197.0 197.0 197.0 197.0 197.0 197.0 197.0 197.0 197.0 197.0 197.0 197.0 197.0 197.0 197.0 197.0 197.0 197.0 197.0 197.0 197.0 197.0 197.0 197.0 196.0 196.0 196.0 196.0 196.0 196.0 195.0 194.7677617507971 194.0 193.0 192.0 191.0 190.0 189.0 188.0 188.0 187.0 186.0 186.0 186.0 186.0 186.0 186.0 186.0 185.97227736834003 186.97227736834003 187.97227736834003 189.0 191.07239233824453 192.0 195.0 197.17250730814908 196.1001149699045 195.0 195.07239233824453 194.0 194.0 194.0 195.0 195.92760766175547 197.02772263165997 197.0 196.04466970658456 196.30463058744746 196.30463058744746 196.04466970658456 195.0 195.0 194.0 193.0 192.0 192.0 191.97227736834003 192.0 193.0 194.0 196.0 197.0 195.04466970658456 191.27690795578746 190.27690795578746 189.27690795578746 189.27690795578746 190.04466970658456 189.27690795578746 189.27690795578746 189.27690795578746 189.27690795578746 189.27690795578746 189.27690795578746 188.27690795578746 188.27690795578746 187.04466970658456 183.7677617507971 181.92760766175547 182.0 182.0 182.0 182.0 182.0 182.0
212.0 212.06266540615508 212.05873598009896 211.99607057394388 211.99607057394388 212.0 212.0 212.0 212.0 212.0 212.0 212.0 212.0 212.0 212.94126401990104 213.00392942605612 213.0 213.0 213.00392942605612 213.0 213.00392942605612 213.00392942605612 213.00392942605612 213.00392942605612 213.0 213.0 213.00785885211226 213.00785885211226 213.0 213.0 213.0 213.0 213.0 213.0 213.0 213.0 213.0 213.0 211.0 209.93733459384492 207.90298183187116 206.9656472380262 205.90691125792728 204.8725584959535 205.81382251585455 206.7550865357556 206.77946975388076 208.76294538786786 209.72466319983798 208.72466319983798 206.7168043477257 207.77946975388076 208.7550865357556 207.6785221596958 208.70027998171275 209.66199779368287 210.70813883382502 209.58280802151486 206.66199779368287 205.72073377378183 204.77554032782464 204.80989308979844 206.81382251585455 205.80989308979844 204.80989308979844 204.85210470388446 203.81382251585455 203.7550865357556 203.77946975388076 203.77946975388076 204.72073377378183 205.623715605653 207.623715605653 208.72073377378183 209.7168043477257 207.77946975388076 205.77554032782464 205.81382251585455 206.7168043477257 208.77946975388076 208.81775194191067 209.85603412994058 210.95305229806942 211.85603412994058 207.81382251585455 206.77554032782464 207.7550865357556 209.79336872378548 211.85603412994058 212.89824574402655 210.96957666408235 211.9656472380262 213.04614104014217 212.00392942605612 212.05873598009896 212.06266540615508 212.00392942605612 212.00392942605612 212.00392942605612 212.0 211.9617178119701 212.0382821880299 212.04221161408603 212.02175782201698 210.04614104014217 208.00785885211226 206.0 204.0 203.0 201.0 199.0 198.0 197.0 197.0 197.0 197.0 197.0 197.0 197.0 197.0 197.0 197.0 197.0 197.0 197.0 197.0 197.0 197.0 197.0 197.0 197.0 197.0 197.0 197.0 197.0 197.0 197.0 197.0 197.0 197.0 197.0 197.0 197.0 197.0 197.0 197.0 197.0 197.0 197.0 197.0 197.0 197.0 197.0 197.0 197.0 197.0 197.0 197.0 197.0 197.0 197.0 197.0 197.0 197.0 197.0 197.0 197.0 197.0 197.0 197.0 197.0 196.0 196.0 196.0 196.0 196.0 196.0 195.0 195.0 194.0 193.0 192.0 191.0 190.0 189.0 188.0 188.0 187.0 186.0 185.94126401990104 186.0 186.0 186.0 186.0 186.0 186.0 187.00392942605612 188.0 189.0 189.9617178119701 192.00392942605612 194.94519344595716 194.80989308979844 194.84817527782835 194.8864574658582 193.90691125792728 194.00392942605612 194.0 194.0 195.0 196.97954620793092 197.0 197.00392942605612 194.90691125792728 194.90691125792728 194.90691125792728 194.90691125792728 194.94519344595716 194.94519344595716 194.00392942605612 193.0 192.0 191.94126401990104 192.00392942605612 192.0 192.94126401990104 193.94126401990104 195.94519344595716 196.94519344595716 193.90691125792728 189.90298183187116 188.90298183187116 187.90691125792728 187.9656472380262 188.90691125792728 187.9656472380262 187.9656472380262 187.9656472380262 187.9656472380262 187.9656472380262 187.9656472380262 186.9656472380262 186.90691125792728 185.90691125792728 184.0 183.0382821880299 182.0 182.0 182.0 182.0 182.0 182.0
212.0 212.55534462516667 213.06675363752225 212.45384580950048 212.45384580950048 211.94243679714486 212.0 212.0 212.0 212.0 212.0 212.0 212.0 212.0 211.93324636247775 212.54615419049952 213.0 213.11512640571024 212.60371739335466 213.05756320285514 212.60371739335466 212.54615419049952 212.54615419049952 212.54615419049952 213.0 213.05756320285514 212.14987158385418 212.14987158385418 213.11512640571024 213.0 213.0 213.0 213.0 213.0 213.0 213.0 213.0 213.0 211.0 209.38709217197822 206.99080956533288 206.60371739335466 204.5369637558324 203.02555474347685 203.01636430880967 203.00717387414255 203.62008170216433 204.15704545799673 205.15704545799673 204.15704545799673 203.0647370769977 204.67764490501946 205.0647370769977 204.00717387414255 203.48657442711982 204.6017008328301 204.69400921382913 202.41063035493045 201.48657442711982 201.55332806464207 202.01636430880967 202.52777332116528 204.01636430880967 203.52777332116528 202.52777332116528 202.01636430880967 201.0739275116648 200.00717387414255 200.62008170216433 200.56251849930922 200.55332806464207 200.48657442711982 202.54413762997495 204.55332806464207 206.0647370769977 204.62008170216433 202.95880110595456 202.95880110595456 202.94961067128742 205.67764490501946 205.62008170216433 206.62008170216433 208.68683533968658 208.62008170216433 205.01636430880967 204.0739275116648 204.00717387414255 206.0647370769977 208.7352081078746 209.22379909551898 210.2074347867093 211.6612805962098 212.14987158385418 211.60371739335466 213.1818800432325 212.6704710308769 211.6612805962098 211.6612805962098 211.6612805962098 212.05756320285514 212.11512640571024 212.11512640571024 211.60371739335466 210.59452695868754 209.2074347867093 207.14987158385418 206.11512640571024 204.05756320285514 203.05756320285514 201.0 199.0 198.0 197.0 197.0 197.0 197.0 197.0 197.0 197.0 197.0 197.0 197.0 197.0 197.0 197.0 197.0 197.0 197.0 197.0 197.0 197.0 197.0 197.0 197.0 197.0 197.0 197.0 197.0 197.0 197.0 197.0 197.0 197.0 197.0 197.0 197.0 197.0 197.0 197.0 197.0 197.0 197.0 197.0 197.0 197.0 197.0 197.0 197.0 197.0 197.0 197.0 197.0 197.0 197.0 197.0 197.0 197.0 197.0 197.0 197.0 197.0 196.0 196.0 196.0 196.0 196.0 196.0 195.0 195.0 194.0 193.0 192.0 191.0 190.0 189.0 188.0 188.0 187.0 186.0 184.93324636247775 186.05756320285514 186.05756320285514 186.0 186.0 186.0 186.0 186.54615419049952 188.05756320285514 189.05756320285514 190.0 191.60371739335466 193.59452695868754 192.412646915455 192.412646915455 192.412646915455 192.47940055297727 193.60371739335466 194.05756320285514 194.0 195.05756320285514 195.99080956533288 197.05756320285514 196.60371739335466 193.47940055297727 193.47940055297727 193.47940055297727 193.47940055297727 193.47940055297727 193.47940055297727 193.54615419049952 193.0 192.0 190.93324636247775 191.54615419049952 192.05756320285514 191.93324636247775 192.99080956533288 194.5369637558324 195.5369637558324 192.5369637558324 188.99080956533288 188.048372768188 186.5369637558324 187.60371739335466 187.5369637558324 187.60371739335466 187.60371739335466 187.60371739335466 187.60371739335466 187.60371739335466 187.60371739335466 186.60371739335466 185.5369637558324 184.5369637558324 184.05756320285514 183.05756320285514 182.0 182.0 182.0 182.0 182.0 182.0
212.05795332973705 212.86763996385912 213.0 213.0116239609597 213.0116239609597 212.87926392481882 211.94204667026295 212.0 212.0 212.0 212.0 212.0 212.0 212.0 212.0 211.9883760390403 213.11590665947412 211.2414721503624 211.10911211422152 212.17868940491823 211.10911211422152 212.04632936877738 211.9883760390403 211.9304227093033 213.0 212.12073607518118 210.21339481273594 210.15544148299887 211.35737880983652 213.17385998921117 213.05795332973705 213.05795332973705 213.0 213.0 213.0 213.0 213.05795332973705 213.0 211.0 210.0116239609597 206.06278274544414 205.16706544395856 203.10911211422152 202.03470540781768 201.15544148299887 200.27617755818005 200.32250692695746 199.3736657114419 200.489572370916 199.3736657114419 199.4548669630983 200.44324300213862 201.39691363336127 201.33413088791713 200.32250692695746 199.5639790773198 198.4827778256634 198.38528967240157 198.26455359722038 198.26455359722038 200.21339481273594 200.28780151913975 202.21339481273594 201.34575484887682 200.28780151913975 200.21339481273594 198.27617755818005 197.21822422844303 197.20660026748334 198.14381752203917 197.20660026748334 197.20660026748334 198.38528967240157 201.3804602566945 202.4548669630983 201.26455359722038 202.09265873755476 202.09265873755476 201.15544148299887 201.38528967240157 202.32250692695746 203.32250692695746 205.3804602566945 205.3804602566945 203.21339481273594 201.33413088791713 201.33413088791713 202.4548669630983 203.5639790773198 204.43161904117892 207.33413088791713 209.34575484887682 210.21339481273594 210.22501877369564 211.35737880983652 211.22501877369564 209.34575484887682 209.34575484887682 209.34575484887682 211.2366427346553 210.29942548009944 210.29942548009944 210.22501877369564 208.34575484887682 206.27617755818005 205.15544148299887 204.29942548009944 203.17868940491823 202.12073607518118 201.0 198.94204667026295 198.0 197.0 197.0 197.0 197.0 197.0 197.0 197.0 197.0 197.0 197.0 197.0 197.0 197.0 197.0 197.0 197.0 197.0 197.0 197.0 197.0 197.0 197.0 197.0 197.0 197.0 197.0 197.0 197.0 197.0 197.0 197.0 197.0 197.0 197.0 197.0 196.94204667026295 197.0 197.0 197.0 197.0 197.0 197.0 197.0 197.0 197.0 197.0 197.0 197.0 197.0 197.0 197.0 197.0 197.0 197.0 197.0 197.0 197.0 197.0 197.0 196.0 196.0 196.0 196.0 196.0 196.0 195.0 195.0 194.0 193.0 192.0 191.0 190.0 189.0 188.0 188.0 187.0 186.0 185.0 185.17868940491823 185.12073607518118 186.0 186.0 186.0 186.0 185.9883760390403 187.17868940491823 188.12073607518118 190.05795332973705 190.10911211422152 191.28780151913975 192.04632936877738 192.04632936877738 192.04632936877738 192.04632936877738 192.16706544395856 193.17868940491823 194.05795332973705 194.12073607518118 195.12073607518118 196.17868940491823 195.10911211422152 193.04632936877738 193.04632936877738 193.04632936877738 193.04632936877738 193.04632936877738 193.04632936877738 193.04632936877738 193.05795332973705 192.0 191.0 190.9883760390403 191.12073607518118 192.05795332973705 192.12073607518118 193.16706544395856 194.16706544395856 191.05115878448447 188.12073607518118 186.2414721503624 185.10911211422152 186.16706544395856 186.16706544395856 186.16706544395856 186.16706544395856 186.16706544395856 186.16706544395856 186.16706544395856 186.16706544395856 185.16706544395856 184.16706544395856 183.10911211422152 183.17868940491823 182.12073607518118 182.0 182.0 182.0 182.0 182.0 182.0
210.9519512787679 213.01639125464663 213.0 213.0 213.01639125464663 213.0 213.06443997587874 212.15473496200644 211.98360874535337 212.0 212.0 212.0 212.0 212.0 212.0 212.0 210.87112004824252 210.84526503799356 210.84526503799356 210.78082506211484 211.01639125464663 210.93556002412126 212.01639125464663 212.9424875231656 212.87804754728685 211.8944388019335 207.57804137887632 208.6588726094017 208.7491675955294 209.68472761965066 211.64248135475506 211.79721631676148 213.01639125464663 213.0 213.0 213.0 211.93556002412126 213.0 211.15473496200644 210.0 207.06443997587874 203.93556002412126 202.84526503799356 200.93556002412126 199.93556002412126 198.93556002412126 197.85472879359588 197.76443380746818 196.8066800723638 197.78082506211484 196.87112004824252 197.71638508623613 199.64248135475506 198.5616501242297 197.71638508623613 196.87112004824252 196.93556002412126 196.93556002412126 196.93556002412126 196.93556002412126 197.88751130288915 198.9519512787679 199.7491675955294 198.73277634088276 198.79721631676148 197.71638508623613 196.93556002412126 197.0 197.0 196.93556002412126 197.0 197.0 196.93556002412126 197.65194511035736 199.57804137887632 199.64248135475506 199.57804137887632 199.57804137887632 199.64248135475506 199.64248135475506 199.57804137887632 200.59443263352296 201.52999265764421 201.52999265764421 200.57804137887632 198.9039025575358 198.9039025575358 199.7491675955294 200.59443263352296 201.57804137887632 204.57804137887632 206.7491675955294 207.59443263352296 207.57804137887632 208.7491675955294 208.7491675955294 206.73277634088276 206.88751130288915 206.88751130288915 208.57804137887632 208.8136075714081 208.64248135475506 207.59443263352296 205.73277634088276 204.79721631676148 203.78082506211484 202.78082506211484 201.78082506211484 201.8616562926402 200.8616562926402 199.92609626851896 198.01639125464663 197.0 197.0 197.0 197.0 196.98360874535337 197.12195245271315 197.12195245271315 197.0 197.0 197.0 197.0 197.0 197.0 197.0 197.0 197.0 197.0 197.0 197.0 197.0 197.0 197.0 197.0 197.0 197.0 197.0 197.0 197.0 197.0 197.0 197.0 197.0 197.0 197.0 197.0 197.90970501387233 197.0 197.0 197.0 197.0 197.0 197.0 197.0 197.0 197.0 197.0 197.0 197.0 197.0 197.0 197.0 197.0 197.0 197.0 197.0 197.0 197.0 197.0 197.0 196.0 196.0 196.0 196.0 196.0 196.0 195.0 195.0 194.0 193.0 192.0 191.0 190.0 189.0 187.98360874535337 188.0 187.0 186.0 185.0 184.09029498612767 184.8616562926402 185.8616562926402 186.01639125464663 186.0 186.0 186.0 185.93556002412126 187.8616562926402 188.9519512787679 189.8616562926402 189.78082506211484 190.79721631676148 190.79721631676148 190.79721631676148 190.79721631676148 190.79721631676148 191.79721631676148 192.78082506211484 193.8616562926402 194.8616562926402 194.79721631676148 194.8616562926402 191.79721631676148 191.79721631676148 191.79721631676148 191.79721631676148 191.79721631676148 191.79721631676148 191.79721631676148 191.79721631676148 191.8616562926402 191.01639125464663 190.84526503799356 190.8616562926402 190.79721631676148 191.8616562926402 191.9519512787679 192.78082506211484 192.08083123052538 188.0 186.0 185.0 184.78082506211484 184.78082506211484 184.78082506211484 184.79721631676148 184.79721631676148 184.79721631676148 184.79721631676148 184.78082506211484 183.78082506211484 182.9519512787679 182.84526503799356 181.93556002412126 182.0 182.0 182.0 182.0 182.0 182.0 182.0
210.47971751809627 212.40965285927004 213.0 213.07006465882623 212.3395882004438 213.0 213.0 213.05230114940667 212.59034714072996 211.92993534117377 212.0 212.0 212.0 212.0 212.0 212.0 211.0 209.94769885059333 210.01776350941955 209.94769885059333 210.40965285927004 211.0 211.5497821769225 210.90713388678586 210.97719854561208 209.38685140488212 205.44517987810914 205.85483273737918 206.90713388678586 207.83706922795963 209.37511521928292 210.4274163686896 212.5497821769225 213.07006465882623 213.14012931765245 213.14012931765245 212.14012931765245 213.14012931765245 212.19243046705913 210.07006465882623 207.07006465882623 204.0 201.94769885059333 201.0 200.0 198.92993534117377 198.52028248190373 197.46798133249706 196.92993534117377 196.94769885059333 197.0 196.94769885059333 197.3050505604567 196.89539770118665 196.94769885059333 197.0 197.0 197.0 197.0 197.0 197.40965285927004 198.47971751809627 197.7670045691334 197.35735170986337 197.35735170986337 196.94769885059333 197.0 197.0 197.0 197.0 197.0 197.0 197.0 196.8776341917671 197.3050505604567 197.3050505604567 197.3050505604567 197.3050505604567 197.3050505604567 197.3050505604567 197.3050505604567 197.71470341972673 198.78476807855296 198.78476807855296 198.37511521928292 197.81930571854008 197.81930571854008 197.7670045691334 197.71470341972673 199.3050505604567 202.37511521928292 204.90713388678586 204.85483273737918 205.44517987810914 206.90713388678586 206.90713388678586 205.49748102751582 206.47971751809627 206.47971751809627 206.37511521928292 206.90713388678586 206.44517987810914 204.71470341972673 204.4274163686896 203.4274163686896 203.01776350941955 202.01776350941955 201.01776350941955 200.4274163686896 199.4274163686896 198.35735170986337 197.40965285927004 197.0 197.0 197.0 196.92993534117377 197.4502178230775 199.09286611321414 199.2329954308666 197.0 197.0 197.0 197.0 197.0 197.0 197.0 197.0 197.0 197.0 197.0 197.0 197.0 197.0 197.0 197.0 197.0 197.0 197.0 197.0 197.0 197.0 197.0 197.0 197.0 197.0 197.0 197.0 196.94769885059333 197.0 197.0 197.0 197.0 197.0 197.0 197.0 197.0 197.0 197.0 197.0 197.0 197.0 197.0 197.0 197.0 197.0 197.0 197.0 197.0 197.0 197.0 197.0 196.0 196.0 196.0 196.0 196.0 196.0 195.0 195.0 194.0 193.0 192.07006465882623 191.0 190.0 189.0 188.59034714072996 188.0 187.0 186.0 185.0 185.05230114940667 183.35735170986337 184.4274163686896 185.47971751809627 186.07006465882623 186.07006465882623 186.0 186.0 186.35735170986337 188.47971751809627 188.4274163686896 189.01776350941955 189.4274163686896 189.4274163686896 189.4274163686896 189.4274163686896 189.35735170986337 190.35735170986337 192.01776350941955 192.4274163686896 193.4274163686896 193.35735170986337 193.4274163686896 190.35735170986337 190.4274163686896 190.4274163686896 190.4274163686896 190.4274163686896 190.4274163686896 190.4274163686896 190.4274163686896 190.4274163686896 190.47971751809627 190.01776350941955 189.35735170986337 189.35735170986337 190.4274163686896 191.47971751809627 192.01776350941955 191.47971751809627 188.0 186.0 185.0 184.01776350941955 184.01776350941955 184.01776350941955 183.35735170986337 183.35735170986337 183.35735170986337 183.35735170986337 184.01776350941955 183.01776350941955 182.40965285927004 181.94769885059333 182.0 182.0 182.0 182.0 182.0 182.0 182.0 182.0
209.05766559420226 212.02403657256633 213.0 212.059232376281 213.0160109055754 213.02560335464506 213.0 213.0 213.00156678207873 212.96637097836407 211.97439664535494 212.0 212.0 212.0 212.0 212.0 211.0 210.0 209.03362902163593 210.02560335464506 210.02403657256633 211.05120670929008 209.11689797048325 208.11533118840453 207.14896021004046 205.14739342796173 203.11689797048325 203.08972783375947 204.11533118840453 206.0817021667686 208.08326894884732 209.05766559420226 210.0912946158382 212.08483573092605 211.09286139791695 211.118464752562 210.09286139791695 211.09286139791695 210.0672580432719 209.059232376281 206.03362902163593 204.0 201.97439664535494 200.97439664535494 199.97439664535494 199.940767623719 199.94233440579774 198.94233440579774 197.940767623719 196.97439664535494 197.0 197.0 196.99843321792127 197.0 197.0 197.0 197.0 197.0 197.0 197.0 196.99843321792127 197.0320622395572 196.99686643584252 196.99843321792127 196.99843321792127 197.0 197.0 197.0 197.0 197.0 197.0 197.0 197.0 197.99197433300913 196.99843321792127 196.99843321792127 196.99843321792127 196.99843321792127 196.99843321792127 196.99843321792127 196.99843321792127 196.99686643584252 197.03049545747848 197.03049545747848 197.0320622395572 196.99686643584252 196.99686643584252 196.99686643584252 196.99686643584252 198.99843321792127 201.05766559420226 202.11533118840453 202.08972783375947 203.11689797048325 204.11533118840453 204.11533118840453 203.0912946158382 205.05766559420226 205.05766559420226 205.05766559420226 204.0641244791144 204.0912946158382 204.02246979048758 203.05766559420226 202.05766559420226 202.059232376281 201.059232376281 200.059232376281 199.05766559420226 198.0320622395572 197.99843321792127 196.97282986327622 196.97439664535494 196.97439664535494 196.94879329070992 197.940767623719 199.88310202951675 201.91027216624053 199.97753020951242 197.0 197.0 197.0 197.0 197.0 197.0 197.0 197.0 197.0 197.0 197.0 197.0 197.0 197.0 197.0 197.0 197.0 197.0 197.0 197.0 197.0 197.0 197.0 197.0 197.0 197.0 197.0 197.0 197.0 197.0 197.0 197.0 197.0 197.0 197.0 197.0 197.0 197.0 197.0 197.0 197.0 197.0 197.0 197.0 197.0 197.0 197.0 197.0 197.0 197.0 197.0 197.0 196.0 196.0 196.0 196.0 196.0 196.0 195.0 195.0 194.0 193.0 191.03362902163593 191.02560335464506 190.0 189.0 189.00156678207873 188.0 187.0 186.0 185.0 185.0 182.99843321792127 183.05766559420226 184.05766559420226 185.059232376281 185.059232376281 186.02560335464506 186.0 185.99843321792127 187.05766559420226 187.05766559420226 188.059232376281 188.05766559420226 188.05766559420226 188.05766559420226 188.05766559420226 189.02403657256633 190.02403657256633 191.059232376281 191.05766559420226 192.05766559420226 193.02403657256633 192.0320622395572 190.02403657256633 189.05766559420226 189.05766559420226 189.05766559420226 189.05766559420226 189.05766559420226 189.05766559420226 189.05766559420226 189.05766559420226 189.05766559420226 189.059232376281 189.02403657256633 189.02403657256633 189.05766559420226 190.05766559420226 191.059232376281 190.0320622395572 188.0 186.0 185.0 183.03362902163593 183.059232376281 183.059232376281 183.02403657256633 183.02403657256633 183.02403657256633 183.02403657256633 183.059232376281 182.03362902163593 181.99843321792127 182.0 182.0 182.0 182.0 182.0 182.0 182.0 182.0 182.0
207.44977043165886 210.4832627451574 212.28541933172195 210.4832627451574 210.10424210591194 211.14459224856915 212.52361288781464 213.10047694049555 213.06698462699705 213.0 213.07384245615575 212.0 212.27168586959118 211.96650768650147 212.0 212.0 211.0 210.0 209.0 208.68796398775157 208.7214563012501 208.64761384509433 206.64761384509433 205.64761384509433 204.37592797550315 202.64761384509433 200.6141215315958 201.68796398775157 201.6141215315958 203.34243566200462 205.37592797550315 207.44977043165886 208.7214563012501 209.37592797550315 209.44977043165886 208.64761384509433 208.68796398775157 209.65447167425305 209.76180644390735 207.65447167425305 205.96650768650147 204.5098794256839 203.58372188183964 202.04035014265722 201.34552832574695 201.34552832574695 201.34552832574695 200.31203601224843 199.31203601224843 198.31203601224843 197.23819355609268 197.0 197.0 197.0 197.0 197.0 197.0 197.0 197.0 197.0 197.0 197.0 197.0 197.0 197.0 197.0 197.0 197.0 197.0 197.0 197.0 197.0 197.0 196.92615754384425 197.0 197.0 197.0 197.0 197.0 197.0 197.0 197.0 197.0 197.0 197.0 197.0 197.0 197.0 197.0 199.03349231349853 199.68796398775157 199.6141215315958 200.41627811816036 200.34243566200462 201.64761384509433 201.64761384509433 201.95964985734278 203.68796398775157 203.68796398775157 203.68796398775157 203.76180644390732 202.65447167425305 202.68796398775157 201.65447167425305 200.95964985734278 200.65447167425305 199.65447167425305 198.92615754384425 198.19784341343546 198.27168586959118 198.27168586959118 198.34552832574695 198.31203601224843 198.31203601224843 199.35238615490567 199.58372188183964 202.3858784684042 203.65070650883666 201.14082708315277 197.0 197.0 197.0 197.0 197.0 197.0 197.0 197.0 197.0 197.0 197.0 197.0 197.0 197.0 197.0 197.0 197.0 197.0 197.0 197.0 197.0 197.0 197.0 197.0 197.0 197.0 197.0 197.0 197.0 197.0 197.0 197.0 197.0 197.0 197.0 197.0 197.0 197.0 197.0 197.0 197.0 197.0 197.0 197.0 197.0 197.0 197.0 197.0 197.0 197.0 197.0 197.0 196.0 196.0 196.0 196.0 196.0 196.0 195.0 195.0 194.0 193.0 191.0 189.92615754384425 189.76180644390732 189.03349231349853 189.03349231349853 188.03349231349853 187.03349231349853 186.03349231349853 185.0 185.0 183.0 181.92615754384425 182.65447167425305 183.68796398775157 183.65447167425305 184.65447167425305 185.72831413040882 185.76180644390732 185.95964985734278 185.95964985734278 186.68796398775157 186.68796398775157 186.65447167425305 186.65447167425305 186.65447167425305 187.68796398775157 188.68796398775157 189.68796398775157 189.95964985734278 190.65447167425305 191.68796398775157 191.76180644390732 188.68796398775157 187.68796398775157 187.68796398775157 187.68796398775157 187.68796398775157 187.68796398775157 187.68796398775157 187.68796398775157 187.68796398775157 187.68796398775157 187.68796398775157 187.68796398775157 187.68796398775157 187.95964985734278 188.65447167425305 189.68796398775157 189.76180644390732 188.03349231349853 186.0 185.0 183.0 181.92615754384425 181.92615754384425 181.92615754384425 181.92615754384425 181.92615754384425 181.92615754384425 181.92615754384425 182.0 182.0 182.0 182.0 182.0 182.0 182.0 182.0 182.0 182.0 182.0
204.63662308759376 206.91551017957394 207.95493463139064 206.91551017957394 206.6020879872815 208.32320089530128 209.63662308759376 210.91062082806954 211.63173373608936 213.07395955212897 213.07395955212897 212.07395955212897 213.10849465244127 212.72111290801985 211.92604044787103 211.92604044787103 211.0 210.0 209.0 207.24435199166788 206.59719863577706 206.67115818790606 204.59719863577706 203.67115818790606 201.63662308759376 200.67115818790606 199.31831154379688 200.31831154379688 200.31831154379688 201.35773599561355 202.56266353546476 204.63662308759376 206.67115818790606 206.56266353546476 206.63662308759376 206.59719863577706 207.31831154379688 209.03942445181667 208.24435199166788 206.81754579542974 206.57319380376185 206.56830445225745 205.7162235565154 202.64715335589085 201.96057554818333 201.96057554818333 201.96057554818333 201.75564800833212 200.68168845620312 199.68168845620312 198.68168845620312 196.92604044787103 197.0 197.0 197.0 197.0 197.0 197.0 197.0 197.0 197.0 197.0 197.0 197.0 197.0 197.0 197.0 197.0 197.0 197.0 197.0 197.0 197.0 197.0 197.0 197.0 197.0 197.0 197.0 197.0 197.0 197.0 197.0 197.0 196.92604044787103 196.92604044787103 197.0 197.0 197.0 198.35284664410918 198.31831154379688 198.31831154379688 198.2837764434846 198.2837764434846 199.59719863577706 199.59719863577706 201.35284664410915 202.31831154379688 202.31831154379688 202.24435199166788 202.31831154379688 202.03942445181667 201.24435199166788 201.03942445181667 200.35284664410918 200.03942445181667 198.96546489968773 199.0 199.03453510031227 199.03453510031227 199.03453510031227 199.03453510031227 199.82960756046108 199.82960756046108 201.5507204684809 201.79018310864438 203.90356711259005 204.4958763968627 199.63173373608936 197.0 197.0 197.0 197.0 197.0 197.0 197.0 197.0 197.0 197.0 197.0 197.0 197.0 197.0 197.0 197.0 197.0 197.0 197.0 197.0 197.0 197.0 197.0 197.0 197.0 197.0 197.0 197.0 197.0 197.0 197.0 197.0 197.0 197.0 197.0 197.0 197.0 197.0 197.0 197.0 197.0 197.0 197.0 197.0 197.0 197.0 197.0 197.0 197.0 197.0 197.0 197.0 196.0 196.0 196.0 196.0 196.0 196.0 195.0 195.0 194.0 193.0 191.0 190.0 188.24435199166788 188.27888709198018 188.35284664410918 187.35284664410918 186.35284664410918 185.35284664410918 185.073959552129 185.073959552129 183.0 182.0 181.96546489968773 182.2443519916679 183.0394244518167 184.0394244518167 185.0394244518167 184.2443519916679 185.35284664410918 185.35284664410918 185.31831154379688 185.2443519916679 186.0394244518167 186.0394244518167 186.0394244518167 186.31831154379688 187.31831154379688 188.31831154379688 189.35284664410918 190.03942445181667 190.31831154379688 190.31831154379688 187.31831154379688 186.2443519916679 186.2443519916679 186.2443519916679 186.2443519916679 186.2443519916679 186.2443519916679 186.2443519916679 186.2443519916679 186.2443519916679 186.2443519916679 186.2443519916679 186.2443519916679 187.35284664410918 188.03942445181667 188.31831154379688 188.31831154379688 187.35284664410918 186.073959552129 185.0 183.0 182.0 182.0 182.0 182.0 182.0 182.0 182.0 182.0 182.0 182.0 182.0 182.0 182.0 182.0 182.0 182.0 182.0 182.0
201.8974165135951 203.8692072693329 203.87558196585547 203.86795931813225 203.89616856239448 205.8974165135951 206.92687370905793 208.9192510613347 209.94995620799818 211.9192510613347 211.94870825679754 210.97816545226038 211.97816545226038 213.00249590240125 213.02433045014084 213.02433045014084 211.0 210.0 208.9680469021359 206.99875204879936 204.97691750105977 203.92437780665668 202.94746030559693 200.92437780665668 198.92437780665668 197.9550829533202 197.97816545226038 198.94870825679754 198.94746030559693 198.92437780665668 200.94870825679754 201.92687370905793 203.89616856239448 204.92049901253532 203.9256257578573 204.94870825679754 205.94870825679754 207.94870825679754 208.0 209.0743742421427 209.13328863306836 210.12816188774642 207.05253969440307 204.02183454773962 203.05129174320246 203.05129174320246 203.0807489386653 202.02820924426223 202.05129174320246 201.05129174320246 200.05253969440307 198.05129174320246 196.99875204879936 197.0 197.0 197.0 197.0 197.0 197.0 197.03070514666348 197.03070514666348 197.0 197.0 197.0 197.0 197.0 197.0 197.0 197.0 197.0 197.0 197.0 197.0 197.0 197.0 197.0 197.0 197.0 197.0 197.0 197.0 197.0 197.00124795120064 196.97054280453716 197.994873254678 197.994873254678 197.0 197.0 197.0 196.97566954985916 196.97691750105977 196.97691750105977 196.97691750105977 196.97691750105977 197.97691750105977 197.94746030559693 199.94870825679754 200.94870825679754 200.94870825679754 201.97179075573777 200.94870825679754 200.94870825679754 200.97179075573777 199.94870825679754 198.97816545226038 198.97816545226038 199.00124795120064 199.00124795120064 199.00124795120064 198.97054280453716 198.97054280453716 198.97054280453716 198.94746030559693 198.94746030559693 200.9192510613347 201.94358151147554 201.8974165135951 201.8974165135951 197.94746030559693 197.0 197.0 197.0 197.0 197.0 197.0 197.0 197.0 197.0 197.0 197.0 197.0 197.0 197.0 197.0 197.0 197.0 197.0 197.0 197.0 197.0 197.0 197.0 197.0 197.0 197.0 197.0 197.0 197.0 197.0 197.0 197.0 197.0 197.0 197.0 197.0 197.0 197.0 197.0 197.0 197.0 197.0 197.0 197.0 197.0 197.0 197.0 197.0 197.0 197.0 197.0 197.0 196.0 196.0 196.0 196.0 196.0 196.0 195.0 195.0 194.0 193.0 191.0 190.0 188.0 187.97179075573777 186.94870825679754 185.94870825679754 184.94870825679754 183.94870825679754 183.94870825679754 183.94870825679754 183.00124795120064 182.0 182.0 182.0 181.97691750105977 182.94746030559693 183.94870825679754 183.97179075573777 183.94870825679754 183.94870825679754 183.94870825679754 184.97179075573777 184.94870825679754 184.94870825679754 184.94870825679754 184.97816545226038 185.94870825679754 186.94870825679754 187.94870825679754 188.94870825679754 188.94746030559693 188.94870825679754 185.94870825679754 185.97179075573777 185.97179075573777 185.97179075573777 185.97179075573777 185.97179075573777 185.97179075573777 185.97179075573777 185.97179075573777 185.97179075573777 185.97179075573777 185.97179075573777 185.97179075573777 185.94870825679754 186.94870825679754 186.94746030559693 186.94746030559693 185.94746030559693 184.97816545226038 184.97179075573777 183.00124795120064 182.0 182.0 182.0 182.0 182.0 182.0 182.0 182.0 182.0 182.0 182.0 182.0 182.0 182.0 182.0 182.0 182.0 182.0
199.10702088615 199.63488765110165 200.7567549636503 200.03644092984808 201.55986152114318 203.10702088615 205.17760084245194 206.50857416489646 208.07502612995847 209.4572868086497 210.57915412119837 210.64973407750028 211.64973407750028 212.19689344250713 212.64973407750028 212.64973407750028 210.94871264375325 209.84613793125982 208.6299518886975 207.24769121000622 204.84613793125982 202.8268453312046 201.9294200436981 199.9294200436981 197.9294200436981 197.59844672125357 197.59844672125357 197.52786676495163 197.9807073999448 197.9807073999448 199.52786676495163 200.12631348620522 201.55986152114318 202.15830824239674 202.63044147744512 203.63044147744512 204.57915412119837 206.57915412119837 208.05128735624675 210.5234205912951 212.7158678601457 212.19244726885057 208.0705799563019 204.35026592249972 204.42084587880163 204.42084587880163 205.44013847885682 203.42084587880163 203.47213323504837 202.47213323504837 201.0192926000552 199.47213323504837 197.35026592249972 197.0 197.0 197.0 197.0 197.0 197.0 197.6690266775555 197.6690266775555 197.0 197.0 197.0 197.0 197.0 197.0 197.0 197.0 197.0 197.0 197.0 197.0 197.0 197.0 197.0 197.0 197.0 197.0 197.0 197.0 197.0 196.59844672125357 195.9294200436981 196.52786676495163 196.52786676495163 197.05128735624675 197.0 197.0 197.45284063499315 197.0 197.0 197.0 197.0 198.05128735624675 196.9294200436981 198.52786676495163 199.52786676495163 199.52786676495163 200.57915412119837 199.57915412119837 199.57915412119837 199.57915412119837 198.57915412119837 198.64973407750028 198.64973407750028 198.64973407750028 198.64973407750028 198.64973407750028 197.9807073999448 197.9807073999448 197.9807073999448 197.9807073999448 197.9807073999448 198.50857416489646 199.10702088615 199.10702088615 199.10702088615 196.9294200436981 197.0 197.0 197.0 197.0 197.0 197.0 197.0 197.0 197.0 197.0 197.0 197.0 197.0 197.0 197.0 197.0 197.0 197.0 197.0 197.0 197.0 197.0 197.0 197.0 197.0 197.0 197.0 197.0 197.0 197.0 197.0 197.0 197.0 197.0 197.0 197.0 197.0 197.0 197.0 197.0 197.0 197.0 197.0 197.0 197.0 197.0 197.0 197.0 197.0 197.0 197.0 197.0 196.0 196.0 196.0 196.0 196.0 196.0 195.0 195.0 194.0 193.0 191.0 190.0 188.0 186.52786676495163 185.52786676495163 184.57915412119837 183.57915412119837 182.52786676495163 182.52786676495163 182.52786676495163 182.59844672125357 182.0 182.0 182.0 182.0 181.9294200436981 182.52786676495163 182.52786676495163 182.52786676495163 182.52786676495163 182.52786676495163 183.57915412119837 183.57915412119837 183.57915412119837 183.57915412119837 184.64973407750028 184.57915412119837 185.57915412119837 186.57915412119837 187.57915412119837 187.9807073999448 187.57915412119837 184.52786676495163 184.57915412119837 184.57915412119837 184.57915412119837 184.57915412119837 184.57915412119837 184.57915412119837 184.57915412119837 184.57915412119837 184.57915412119837 184.57915412119837 184.57915412119837 184.57915412119837 184.57915412119837 185.57915412119837 185.9807073999448 185.9807073999448 184.9807073999448 184.64973407750028 183.57915412119837 182.59844672125357 182.0 182.0 182.0 182.0 182.0 182.0 182.0 182.0 182.0 182.0 182.0 182.0 182.0 182.0 182.0 182.0 182.0 182.0
197.1268009448978 197.1094318945392 197.27097094015423 198.19228008111102 199.24022990465824 201.06132180868457 203.06132180868457 205.01321172282996 207.60728544502808 208.85167267721496 209.14416999525645 209.20964913146963 210.20964913146963 211.03074103549596 211.20964913146963 211.20964913146963 211.90394009059818 212.6463411355813 211.71166000948716 210.4672727773003 207.31894545451524 204.48048450013027 201.86904172757357 199.9345208637868 197.9345208637868 196.9826309496414 196.9826309496414 196.9826309496414 197.16153904561506 197.09605990940182 199.0481100858546 199.03074103549596 199.37118817708466 199.35381912672605 200.43666731329787 201.43666731329787 203.27512826768282 205.20964913146963 207.22701818182827 210.24438723218688 211.3404471415887 211.22701818182827 208.0 205.85583000474355 205.79035086853037 205.72487173231718 207.62881182291534 204.79035086853037 203.9518899141454 202.9518899141454 201.77298181817173 199.9518899141454 198.79035086853037 196.9345208637868 197.0 197.0 197.0 197.0 197.0 196.9826309496414 196.9826309496414 197.0 197.0 197.0 197.0 197.0 197.0 197.0 197.0 197.0 197.0 197.0 197.0 197.0 197.0 197.0 197.0 197.0 197.0 197.0 197.0 197.0 195.9826309496414 196.0 195.9826309496414 195.9826309496414 196.16153904561506 197.0 197.0 197.17890809597367 197.0 197.0 197.0 197.0654791362132 197.16153904561506 197.0 198.0481100858546 199.0481100858546 199.0481100858546 199.20964913146963 198.20964913146963 198.20964913146963 198.20964913146963 197.14416999525645 197.14416999525645 197.14416999525645 197.14416999525645 197.14416999525645 197.14416999525645 197.16153904561506 197.16153904561506 197.16153904561506 197.16153904561506 197.16153904561506 197.14416999525645 197.1268009448978 197.1268009448978 197.1268009448978 197.0 197.0 197.0 197.0 197.0 197.0 197.0 197.0 197.0 197.0 197.0 197.0 197.0 197.0 197.0 197.0 197.0 197.0 197.0 197.0 197.0 197.0 197.0 197.0 197.0 197.0 197.0 197.0 197.0 197.0 197.0 197.0 197.0 197.0 197.0 197.0 197.0 197.0 197.0 197.0 197.0 197.0 197.0 197.0 197.0 197.0 197.0 197.0 197.0 197.0 197.0 197.0 197.0 196.0 196.0 196.0 196.0 196.0 196.0 195.0 195.0 194.0 193.0 191.0 190.0 188.0 185.9826309496414 184.9826309496414 183.14416999525645 182.14416999525645 181.9826309496414 181.9826309496414 181.9826309496414 181.9826309496414 182.0 182.0 182.0 182.0 182.0 181.9826309496414 181.9826309496414 181.9826309496414 181.9826309496414 181.9826309496414 182.14416999525645 182.14416999525645 182.14416999525645 182.14416999525645 183.20964913146963 183.20964913146963 184.20964913146963 185.14416999525645 186.20964913146963 187.22701818182827 186.20964913146963 184.0481100858546 183.20964913146963 183.20964913146963 183.20964913146963 183.20964913146963 183.20964913146963 183.20964913146963 183.20964913146963 183.20964913146963 183.20964913146963 183.20964913146963 183.20964913146963 183.20964913146963 183.14416999525645 184.20964913146963 185.22701818182827 185.22701818182827 184.22701818182827 183.20964913146963 182.14416999525645 181.9826309496414 182.0 182.0 182.0 182.0 182.0 182.0 182.0 182.0 182.0 182.0 182.0 182.0 182.0 182.0 182.0 182.0 182.0 182.0
197.0 197.0 197.0 196.9435942411999 200.07786277203388 202.067134265417 204.29539319690917 207.35179895570928 211.2940752487633 211.25912650319697 208.8965990408708 207.95432274781678 208.8294647754538 209.8401932820707 209.8294647754538 209.8294647754538 210.8401932820707 210.8979169890167 211.8965990408708 212.0564057588001 211.28334674214642 208.28334674214642 204.21621247672942 201.1598067179293 199.1705352245462 197.1034009591292 197.0 197.0 197.0 197.942276293054 197.8294647754538 197.8294647754538 197.8294647754538 197.8294647754538 197.7730590166537 198.78378752327058 200.78378752327058 203.8401932820707 205.95432274781678 208.95432274781678 210.8965990408708 209.8294647754538 208.1034009591292 206.20680191825844 207.26320767705852 208.3303419424755 209.2846646902923 206.1598067179293 205.1598067179293 204.1598067179293 203.1598067179293 201.1598067179293 200.03494874556634 198.1598067179293 196.98927149338311 197.0 197.0 197.0 197.0 197.0 197.0 197.0 197.0 197.0 197.0 197.0 197.0 197.0 197.0 197.0 197.0 197.0 197.0 197.0 197.0 197.0 197.0 197.0 197.0 197.0 197.0 197.0 196.0 196.0 196.0 196.0 196.0 197.0 197.0 196.8858705342539 196.8858705342539 197.02145701323377 196.8965990408708 195.9435942411999 197.0 197.0 196.9435942411999 197.8294647754538 197.8294647754538 197.95432274781678 196.9435942411999 196.9435942411999 196.9435942411999 197.0 197.0 197.0 197.0 197.0 197.0 197.0 197.0 197.0 197.0 197.0 197.0 197.0 197.0 197.0 197.0 197.0 197.0 197.0 197.0 197.0 197.0 197.0 197.0 197.0 197.0 197.0 197.0 197.0 197.0 197.0 197.0 197.0 197.0 197.0 197.0 197.0 197.0 197.0 197.0 197.0 197.0 197.0 197.0 197.0 197.0 197.0 197.0 197.0 197.0 197.0 197.0 197.0 197.0 197.0 197.0 197.0 197.0 197.0 197.0 197.0 197.0 197.0 197.0 197.0 197.0 197.0 197.0 196.0 196.0 196.0 196.0 196.0 196.0 195.0 195.0 194.0 193.0 191.0 190.0 188.0 186.0 185.0 183.0 182.0 182.0 182.0 182.0 182.0 182.0 182.0 182.0 182.0 182.0 182.0 182.0 182.0 182.0 182.0 182.0 182.0 182.0 182.0 181.9435942411999 181.9435942411999 182.8294647754538 184.8965990408708 184.8294647754538 185.8401932820707 184.95432274781678 182.8294647754538 181.9435942411999 181.9435942411999 181.9435942411999 181.9435942411999 181.9435942411999 181.9435942411999 181.9435942411999 181.9435942411999 181.9435942411999 181.9435942411999 181.9435942411999 181.9435942411999 182.8858705342539 182.8294647754538 183.8401932820707 183.8401932820707 182.8294647754538 181.9435942411999 182.0 182.0 182.0 182.0 182.0 182.0 182.0 182.0 182.0 182.0 182.0 182.0 182.0 182.0 182.0 182.0 182.0 182.0 182.0 182.0
197.0 197.0 197.0 197.0 198.99294213872815 201.52943399795248 205.7126547161343 208.7126547161343 211.71993314280863 210.51509771000633 207.40486071027317 207.46350814077567 208.0072784266743 208.47078656744998 209.0072784266743 209.0072784266743 209.47078656744998 210.52943399795248 210.40486071027317 212.0 212.0586474305025 209.1245732876793 205.66106514690367 202.66106514690367 200.0586474305025 198.59513928972683 197.0 197.0 197.0 196.9413525694975 196.9413525694975 196.9413525694975 196.9413525694975 196.9413525694975 196.9413525694975 197.33893485309633 199.40486071027317 202.40486071027317 205.39758228359884 208.52943399795248 209.40486071027317 208.9413525694975 209.59513928972683 209.12435272227685 210.12435272227685 210.58786086305253 211.117294861005 207.52921343255002 206.46328757537322 205.52921343255002 204.52921343255002 202.52921343255002 201.00705786127185 199.52921343255002 197.47056600204752 197.0 197.0 197.0 197.0 197.0 197.0 197.0 197.0 197.0 197.0 197.0 197.0 197.0 197.0 197.0 197.0 197.0 197.0 197.0 197.0 197.0 197.0 197.0 197.0 197.0 197.0 197.0 196.0 196.0 196.0 196.0 196.0 197.0 197.0 196.0072784266743 196.0072784266743 195.99294213872815 195.47078656744998 196.0659258571768 197.13185171435362 197.13185171435362 197.0 196.9413525694975 196.9413525694975 197.46350814077567 197.0 197.0 197.0 197.0 197.0 197.0 197.0 197.0 197.0 197.0 197.0 197.0 197.0 197.0 197.0 197.0 197.0 197.0 197.0 197.0 197.0 197.0 197.0 197.0 197.0 197.0 197.0 197.0 197.0 197.0 197.0 197.0 197.0 197.0 197.0 197.0 197.0 197.0 197.0 197.0 197.0 197.0 197.0 197.0 197.0 197.0 197.0 197.0 197.0 197.0 197.0 197.0 197.0 197.0 197.0 197.0 197.0 197.0 197.0 196.9340741428232 197.0 197.0 197.0 197.0 197.0 197.0 197.0 197.0 197.0 197.0 197.0 196.0 196.0 196.0 196.0 196.0 196.0 195.0 195.0 194.0 193.0 191.0 190.0 188.0 186.0 185.0 183.0 182.0 182.0 182.0 182.0 182.0 182.0 182.0 182.0 182.0 182.0 182.0 182.0 182.0 182.0 182.0 182.0 182.0 182.0 182.0 182.0 182.0 181.9413525694975 183.47078656744998 184.0072784266743 184.47078656744998 184.52943399795248 181.9413525694975 182.0 182.0 182.0 182.0 182.0 182.0 182.0 182.0 182.0 182.0 182.0 182.0 181.9413525694975 181.9413525694975 182.40486071027317 182.40486071027317 181.9413525694975 182.0 182.0 182.0 182.0 182.0 182.0 182.0 182.0 182.0 182.0 182.0 182.0 182.0 182.0 182.0 182.0 182.0 182.0 182.0 182.0 182.0
197.0 197.0 197.0 197.0 197.05585841024376 200.14237737720472 203.20748014087718 206.24842853600052 208.27258290454967 208.133133023776 206.99537782328565 206.99537782328565 207.06510276367248 207.0604805869581 208.10605115879576 208.10605115879576 208.10142898208142 209.10142898208142 210.03632621840896 212.0 212.0 208.18794794904238 205.23351852088007 202.15162173063345 200.0409483951233 199.04557057183766 197.0 197.0 197.0 197.0 197.0 197.0 197.0 197.0 197.0 197.88932666448986 198.87253263791573 201.87253263791573 205.76648147911993 206.89668700646487 208.95442942816234 209.0 210.00462217671435 210.98508998487955 211.90319319463293 211.9395194130419 211.0 208.89857101791858 208.79251985912282 206.89857101791858 205.89857101791858 203.9395194130419 202.94414158975624 200.89857101791858 198.9395194130419 196.9590516048767 197.0 197.0 197.0 197.0 197.0 197.0 197.0 197.0 197.0 197.0 197.0 197.0 197.0 197.0 197.0 197.0 197.0 197.0 197.0 197.0 197.0 197.0 197.0 197.0 197.0 197.0409483951233 196.0 195.9590516048767 196.0 196.0 196.0 197.0409483951233 197.0409483951233 195.10605115879576 195.10605115879576 194.09680680536707 194.10142898208142 195.1469995539191 195.17115392246825 195.13020552734494 197.0409483951233 197.0 197.0 196.99537782328565 197.0 197.0 197.0 197.0 196.9590516048767 197.0 197.0409483951233 197.0 197.0 197.0 197.0 197.0 197.0 197.0 197.0 197.0 197.0 197.0 197.0 197.0 197.0 197.0 197.0 197.0 197.0 197.0 197.0 197.0 197.0 197.0 197.0 197.0 197.0 197.0 197.0 197.0 197.0 197.0 197.0 197.0 197.0 197.0 197.0 197.0 197.0 197.0 197.0 197.0 197.0 197.0 197.0 197.0 197.0 197.0 197.0 197.0 197.0 197.0 197.0 197.97584563145085 197.0 197.0 197.0 197.0 197.0 197.0 197.0 197.0 197.0 197.0 197.0 196.0 195.9590516048767 195.9590516048767 196.0 196.0 196.0 195.0 195.0 194.0 193.0 191.0 190.0 188.0 186.0 185.0 183.0 182.0 182.0 182.0 182.0 182.0 182.0 182.0 182.0 182.0 182.0 182.0 182.0 182.0 182.0 182.0 182.0 182.0 182.0 182.0 182.0 182.0 182.0 182.0604805869581 183.10605115879576 183.0604805869581 183.10142898208142 182.0 182.0 182.0 182.0 182.0 182.0 182.0 182.0 182.0 182.0 182.0 182.0 182.0 182.0 182.0 181.99537782328565 181.99537782328565 182.0 182.0 182.0 182.0 182.0 182.0 182.0 182.0 182.0 182.0 182.0 182.0 182.0 182.0 182.0 182.0 182.0 182.0 182.0 182.0 182.0 182.0
196.8949269186368 197.0 197.0 197.0 197.0 197.63406048841196 200.68659702909355 202.39244927916621 205.24188505256024 205.4642410408269 207.0 207.16981944758504 207.0 206.85644882275574 206.58856934316918 206.39248162524333 206.39248162524333 207.39248162524333 208.36621335490253 211.51680992758563 211.294453939319 203.97400557297368 200.07203325889805 199.43797277048608 198.73212052041345 197.70585225007264 197.0 197.0 197.0 197.0 197.0 197.0 197.0 197.0 197.0 199.07179176166068 202.46399954358955 205.6863555318562 210.56205957559104 211.3134353169836 210.29414774992736 209.22235598826666 210.0 209.92820823833932 212.62707978512736 212.0262682703408 211.0 210.29414774992736 211.36593951158804 208.26787947958655 207.04552349131987 204.19608771792585 202.9737317296592 202.04552349131987 199.4447119765333 198.29414774992736 196.9737317296592 197.0 197.0 197.0 197.0 197.0 197.0 197.0 197.0 197.0 197.0 197.0 197.0 197.24862425860746 197.0 197.0 197.0 197.0 197.0 197.0 197.0 197.0 197.0 197.0 197.0 195.92820823833932 196.0 197.07179176166068 196.22235598826666 196.22235598826666 196.22235598826666 195.92820823833932 195.75838879075422 193.73212052041345 193.73212052041345 192.70585225007264 192.73212052041345 192.66032875875277 193.5097645321468 194.83018055241496 195.75838879075422 196.80391228207415 197.0 197.0 197.0 197.0 197.0 197.0 197.84943577339405 196.80391228207415 195.73212052041345 196.5815562938075 196.83018055241496 197.05253654068161 197.05253654068161 197.0262682703408 197.0262682703408 197.0 197.0 197.0 196.77764401173334 196.80391228207415 196.80391228207415 197.0262682703408 197.0 197.0 197.0 197.0 197.0 197.0 197.0 197.0 197.0 197.0 197.0 197.0 197.0 197.0 197.0 197.0 197.0 197.0 197.0 197.0 197.0 197.0 197.0 197.0 197.0 197.0 197.0 197.0 197.0 197.0 197.0 197.0 197.0 197.0 197.0 197.0 197.0 197.0 197.0 196.92820823833932 197.0 197.0 197.0 197.0 197.0 197.0 197.0 197.0 197.0 197.0 197.0 196.0 197.09806003200148 197.07179176166068 196.22235598826666 196.0 195.9737317296592 194.9737317296592 195.0 194.0 193.0 191.0 190.0 188.0 186.0 185.0 183.0 182.0 182.0 182.0 182.0 182.0 182.0 182.0 182.0 182.0 182.0 182.0 182.0 182.0 182.0 182.0 182.0 182.0 182.0 182.0 182.0 182.0 182.0 182.0 181.92820823833932 182.77764401173334 181.92820823833932 182.0 182.0 182.0 182.0 182.0 182.0 182.0 182.0 182.0 182.0 182.0 182.0 182.0 182.0 182.0 182.0 182.0 182.0 182.0 182.0 182.0 182.0 182.0 182.0 182.0 182.0 182.0 182.0 182.0 182.0 182.0 182.0 182.0 182.0 182.0 182.0 182.0 182.0 182.0
199.60172640497578 196.92634900013132 197.0 197.0 197.0 196.95805452826608 198.6940168257125 199.72572235384723 201.75742788198195 202.72572235384723 207.0 209.37963417415617 207.07365099986868 204.17247447423873 202.4616846512937 200.67724382847996 200.67724382847996 201.7508948283486 203.4933901794284 204.48685712579504 203.44491165406112 198.8256850594309 197.20531923358706 197.24726470532102 197.28921017705494 196.95805452826608 197.0 197.0 197.0 197.0 197.0 197.0 197.0 196.92634900013132 196.92634900013132 198.92634900013132 202.37310112052285 206.41504659225677 209.7042567693117 210.2575046489202 210.96829447186525 210.04194547173392 210.0 210.07365099986868 210.9897600564008 211.40480664865754 211.07365099986868 211.04194547173392 212.1155964716026 209.78444082281374 207.66884435121113 205.71078982294506 203.66884435121113 202.66884435121113 201.08389094346788 199.04194547173392 197.66884435121113 197.0 197.0 197.0 197.0 197.0 197.0 197.0 197.0 197.0 197.0 197.0 197.0 197.37310112052285 197.0 197.0 197.0 197.0 197.0 197.0 197.0 197.0 197.0 197.0 197.0 196.07365099986868 196.07365099986868 197.07365099986868 197.04194547173392 197.04194547173392 197.04194547173392 196.0 193.62036582584383 192.28921017705494 192.36286117692362 192.03170552813472 191.36286117692362 191.36286117692362 191.3209157051897 192.6940168257125 193.6940168257125 195.4365121767923 197.14730199973735 197.07365099986868 197.0 197.0 197.0 197.0 196.95805452826608 195.36286117692362 194.36286117692362 194.3209157051897 194.76766782558116 195.8096132973151 195.8096132973151 196.40480664865754 196.33115564878887 197.0 197.0 197.0 195.95805452826608 195.28921017705494 195.28921017705494 196.40480664865754 197.07365099986868 197.0 197.0 197.07365099986868 197.07365099986868 197.0 197.0 197.0 197.0 197.0 197.0 197.0 197.0 197.0 197.0 197.0 197.0 197.0 197.0 197.0 197.0 197.0 197.0 197.0 197.0 197.0 197.0 197.0 197.0 197.0 197.0 197.0 197.0 197.0 197.0 197.0 197.0 197.0 197.0 197.0 197.0 197.0 197.0 197.0 197.0 197.0 197.0 197.0 197.0 197.0 197.0 196.0 196.33115564878887 197.0 197.04194547173392 196.0 196.66884435121113 195.59519335134246 194.92634900013132 193.92634900013132 193.0 191.0 190.0 188.0 186.0 185.0 183.0 182.0 182.0 182.0 182.0 182.0 182.0 182.0 182.0 182.0 182.0 182.0 182.0 182.0 182.0 182.0 182.0 182.0 182.0 182.0 182.0 182.0 182.0 182.0 182.0 181.95805452826608 182.0 182.0 182.0 182.0 182.0 182.0 182.0 182.0 182.0 182.0 182.0 182.0 182.0 182.0 182.0 182.0 182.0 182.0 182.0 182.0 182.0 182.0 182.0 182.0 182.0 182.0 182.0 182.0 182.0 182.0 182.0 182.0 182.0 182.0 182.0 182.0 182.0 182.0 182.0 182.0
201.98692060607956 197.99985955313306 196.99993991817135 196.9998998636189 196.99995994544756 197.0 196.99686565555115 196.99373131110232 197.9873622298901 199.98402710081223 206.98067168852464 209.9774770063137 205.9775173167996 199.98414752040296 197.9873622298901 196.99373131110232 196.99373131110232 196.9905969666535 197.98422788544127 197.98422788544127 196.98746262220465 197.99676526323663 197.0 197.0000200272762 196.99676526323663 196.99676526323663 197.0 197.0 197.0 197.0 197.0 197.0 197.0 197.99989960768548 198.00636908121223 200.00311431717265 201.9999799727238 205.99674523596042 208.9999799727238 211.00636908121223 212.00313434444885 210.0 209.99678529051286 208.99688568282735 209.993650946064 209.993650946064 209.993650946064 210.99678529051286 210.993650946064 208.99688568282735 207.99678529051286 205.99678529051286 204.0000200272762 202.99678529051286 201.0 199.0 198.0 197.0 197.0 197.0 197.0 197.0 197.0 197.0 196.9999799727238 196.9999799727238 197.0 197.0 197.0 197.0 197.0 197.0 197.0 197.0 197.0 197.0 197.0 197.0 197.0 197.0 196.99676526323663 194.99686565555115 194.99363091878777 195.993650946064 196.99678529051286 196.99678529051286 196.99678529051286 195.99678529051286 192.99678529051286 191.99678529051286 190.99363091878777 190.993650946064 189.993650946064 189.9969057101036 189.99688568282735 190.99367097334022 191.99043623657684 192.98732191940425 194.98732191940425 195.99045626385308 196.99359060830193 196.99682534506528 196.99678529051286 197.0 196.99676526323663 193.993650946064 192.993650946064 192.993650946064 191.99375133837853 192.99051660161518 192.99051660161518 194.99367097334022 196.00004005455244 197.00004005455244 197.00004005455244 196.99680531778907 195.99682534506528 194.99680531778907 194.99680531778907 194.993650946064 195.99367097334022 196.99678529051286 196.99678529051286 195.99363091878777 195.99688568282735 197.0 197.0 197.0 197.0 197.0 197.0 197.0000200272762 197.0 197.0 197.0 197.0 197.0 197.0 197.0 197.0 197.0 197.0 197.0 197.0 197.0 197.0 197.0 197.0 197.0 197.0 197.0 197.0 197.0 197.0 197.0 197.0 197.0 197.0 197.0 197.0 197.0 197.0 197.0 197.0 197.0 197.0 197.0 197.0 197.0 197.0000200272762 197.0000200272762 196.0000200272762 195.99676526323663 196.99678529051286 196.99678529051286 196.0000200272762 196.99678529051286 196.9999196349617 196.00315437172506 195.00315437172506 193.0 191.00323473676337 190.0 188.0 186.0 185.0 183.0 182.0 182.0 182.0 182.0 182.0 182.0 182.0 182.0 182.0 182.0 182.0 182.0 182.0 182.0 182.0 182.0 182.0 182.0 182.0 182.0 182.0 182.0 182.0 182.0 182.0 182.0 182.0 182.0 182.0 182.0 182.0 182.0 182.0 182.0 182.0 182.0 182.0 182.0 182.0 182.0 182.0 182.0 182.0 182.0 182.0 182.0 182.0 182.0 182.0 182.0 182.0 182.0 182.0 182.0 182.0 182.0 182.0 182.0 182.0 182.0 182.0 182.0 182.0 182.0 182.0
197.15040734688338 197.35523793199832 197.6867191125084 198.37935317255892 197.51651807126683 197.0 197.0 197.0 196.9267778551233 196.78033356536994 199.1753990106389 200.40954280571168 198.52171604066413 197.50723868022138 196.9267778551233 197.0 197.0 197.0 196.9267778551233 196.9267778551233 197.0 196.9267778551233 197.0 196.65368296997474 195.9267778551233 195.8827488579274 197.0 197.0 197.0 197.0 197.0 197.0 197.0 196.9267778551233 199.0732221448767 200.34631703002526 202.30228803282932 205.22906588795266 209.30228803282932 212.02919314768076 212.04402899719594 210.04402899719594 208.62448982229398 208.69771196717068 208.62448982229398 208.58046082509807 208.58046082509807 209.62448982229398 209.58046082509807 208.65368296997477 206.62448982229398 204.58046082509807 203.69771196717068 201.58046082509807 201.04402899719594 199.0 198.0 197.0 197.0 197.0 197.0 197.0 197.0 197.0 197.39034602722117 197.39034602722117 197.0 197.0 197.0 197.0 197.0 197.0 197.0 197.0 197.0 197.0 197.0 197.0 197.0 197.0 195.9267778551233 195.04402899719594 193.97080685231924 194.62448982229398 195.62448982229398 195.62448982229398 195.62448982229398 194.62448982229398 191.58046082509807 190.62448982229398 189.97080685231924 189.62448982229398 188.62448982229398 189.39542393434135 189.74174096436658 189.32220178946466 189.24897964458796 189.9026626145627 191.94669161175864 192.94669161175864 193.94669161175864 194.9318557622435 195.66851881948992 197.08805799439182 195.9267778551233 192.58046082509807 191.62448982229398 191.62448982229398 191.69771196717068 191.62448982229398 191.62448982229398 193.27817279226872 195.35139493714541 196.39542393434135 196.39542393434135 195.27817279226872 193.9758847594394 193.32220178946466 193.27817279226872 193.66851881948992 194.27817279226872 195.66851881948992 195.62448982229398 194.97080685231924 195.65368296997474 197.0 197.0 197.0 197.04402899719594 197.0 197.0 196.65368296997474 197.04402899719594 197.0 197.0 197.0 197.0 197.0 197.0 197.0 197.0 197.0 197.0 197.0 197.0 197.0 197.0 197.0 197.0 197.0 197.0 197.0 197.0 197.0 197.0 197.0 197.0 197.0 197.0 197.0 197.0 197.0 197.0 197.0 197.0 197.0 197.0 197.0 197.04402899719594 196.65368296997474 196.69771196717068 195.65368296997474 194.9267778551233 195.58046082509807 195.62448982229398 195.69771196717068 195.62448982229398 195.58046082509807 195.69771196717068 194.69771196717068 193.04402899719594 192.0732221448767 190.0 188.0 186.0 185.0 183.0 182.0 182.0 182.0 182.0 182.0 182.0 182.0 182.0 182.0 182.0 182.0 182.0 182.0 182.0 182.0 182.0 182.0 182.0 182.0 182.0 182.0 182.0 182.0 182.0 182.0 182.0 182.0 182.0 182.0 182.0 182.0 182.0 182.0 182.0 182.0 182.0 182.0 182.0 182.0 182.0 182.0 182.0 182.0 182.0 182.0 182.0 182.0 182.0 182.0 182.0 182.0 182.0 182.0 182.0 182.0 182.0 182.0 182.0 182.0 182.0 182.0 182.0 182.0 182.0 182.0
202.00072483351855 203.4414065961544 206.1187656905758 208.30892566988757 202.14232217564827 196.85840265787027 196.92920132893514 196.92920132893514 197.0 197.0 196.90287472563602 196.854312088454 196.92715604422702 196.975718681409 197.0 197.0 197.0 197.0 197.0 197.0 197.0 197.0 197.0 195.975718681409 195.92920132893514 196.7911395523828 197.0 197.0 197.0 197.0 197.0 197.0 197.0 197.0 199.0 201.024281318591 203.81542087097378 206.88621954203865 210.9570182131035 212.93273689451252 211.27965911868208 209.27965911868208 207.25537780009108 207.25537780009108 207.25537780009108 208.04651735247387 208.04651735247387 208.25537780009108 209.04651735247387 208.11731602353873 205.18457912902622 204.04651735247387 202.25537780009108 201.04651735247387 200.27965911868208 199.07079867106486 198.07079867106486 197.0 197.0 197.0 197.0 197.0 197.0 197.0 197.2331417662082 197.2331417662082 197.0 197.0 197.0 197.0 197.0 197.0 197.0 197.0 197.0 197.0 197.0 197.0 197.0 197.0 196.0 194.2088604476172 193.27965911868208 193.25537780009108 194.25537780009108 194.18457912902622 194.25537780009108 193.25537780009108 191.04651735247387 189.25537780009108 189.27965911868208 188.25537780009108 187.25537780009108 186.36915825805244 187.53503691877316 186.43995692911727 186.43995692911727 186.4156756105263 187.6953347292084 188.6953347292084 189.6953347292084 192.27761383397396 193.4642382477083 195.4885195662993 196.07079867106486 192.04651735247387 190.18457912902622 190.25537780009108 190.25537780009108 190.25537780009108 190.25537780009108 191.2310964815001 193.30189515256495 193.43995692911727 193.51075560018216 193.30189515256495 190.4156756105263 190.43995692911727 191.30189515256495 191.53503691877316 192.30189515256495 193.53503691877316 194.32617647115595 194.27965911868208 195.04651735247387 197.2123960131946 197.14159734212973 197.07079867106486 196.27965911868208 197.14159734212973 197.14159734212973 196.04651735247387 196.27965911868208 197.07079867106486 197.0 197.0 197.0 197.0 197.0 197.0 197.0 197.0 197.0 197.0 197.0 197.0 197.0 197.0 196.92920132893514 197.0 197.0 197.0 197.0 197.0 197.0 197.0 197.0 197.0 197.0 197.0 197.0 197.0 197.0 197.0 197.0 197.0 197.0 197.0 196.27965911868208 196.04651735247387 195.18457912902622 195.04651735247387 195.07079867106486 195.04651735247387 194.18457912902622 194.25537780009108 194.25537780009108 195.04651735247387 194.25537780009108 193.25537780009108 192.2088604476172 192.07079867106486 190.0 188.0 186.0 185.0 183.0 182.0 182.0 182.0 182.0 182.0 182.0 182.0 182.0 182.0 182.0 182.0 182.0 182.0 182.0 182.0 182.0 182.0 182.0 182.0 182.0 182.0 182.0 182.0 182.0 182.0 182.0 182.0 182.0 182.0 182.0 182.0 182.0 182.0 182.0 182.0 182.0 182.0 182.0 182.0 182.0 182.0 182.0 182.0 182.0 182.0 182.0 182.0 182.0 182.0 182.0 182.0 182.0 182.0 182.0 182.0 182.0 182.0 182.0 182.0 182.0 182.0 182.0 182.0 182.0 182.0
206.35251038461143 210.37278397633222 212.1728841205947 212.00881858539805 204.10795762293486 199.2964024723497 198.25174956641072 198.24602206324937 197.19564165414903 197.12088193083042 196.9885449936773 196.99427249683865 197.0 197.0 197.0 197.0 197.0 197.0 197.0 197.00572750316135 197.00572750316135 196.9252402766814 196.93096777984277 196.0 197.04465290593902 197.0 197.0 197.0 197.0 197.0 197.0 197.0 197.0 197.0 199.0 200.9252402766814 203.9252402766814 205.88631487390376 208.84738947112612 210.7726297478075 209.81155515058518 207.81155515058518 205.96107459722234 205.96107459722234 205.96107459722234 206.88631487390376 206.88631487390376 206.8805873707424 207.88631487390376 205.910694188122 204.9252402766814 202.8805873707424 200.8805873707424 199.8805873707424 198.88631487390376 197.8805873707424 196.95534709406098 197.0 197.0 197.0 197.0 197.0 197.0 197.0 197.0 196.99427249683865 196.9885449936773 196.98281749051594 196.99427249683865 196.99427249683865 197.0 197.0 197.0 197.0 197.0 197.0 197.0 197.0 197.0 197.0 196.0 194.0 191.95534709406098 191.96107459722234 192.88631487390376 193.93096777984277 192.88631487390376 191.8805873707424 189.95534709406098 187.95534709406098 187.88631487390376 186.88631487390376 185.8805873707424 185.93096777984277 184.84166196796474 184.81155515058518 184.81155515058518 184.81155515058518 184.76690224464616 185.7726297478075 186.76690224464616 189.7726297478075 191.89204237706514 193.89204237706514 194.81155515058518 190.88631487390376 189.93096777984277 188.88631487390376 188.88631487390376 188.88631487390376 188.88631487390376 189.81155515058518 190.84738947112612 191.81728265374653 190.84738947112612 190.84738947112612 188.88631487390376 188.88631487390376 188.84166196796474 188.84166196796474 189.76690224464616 190.7726297478075 191.7726297478075 192.81728265374653 193.81155515058518 193.8027365651871 194.7726297478075 195.81728265374653 194.81155515058518 194.84738947112612 194.84166196796474 194.8805873707424 194.96107459722234 195.88631487390376 196.93096777984277 197.00572750316135 197.0 197.00572750316135 197.00572750316135 197.00572750316135 197.0 197.0 197.0 197.0 197.0 197.0 197.0 197.0 197.96989318262038 197.0 196.85620805652417 196.93096777984277 197.00572750316135 197.0 197.0 197.0 197.0 197.0 197.0 197.0 197.0 197.0 197.0 197.08048722647996 197.0 197.0 197.0 197.0 194.96107459722234 194.88631487390376 194.93096777984277 193.88631487390376 193.88631487390376 193.88631487390376 193.93096777984277 192.96107459722234 192.8805873707424 193.88631487390376 192.8805873707424 191.96107459722234 191.93096777984277 190.88631487390376 189.93096777984277 188.00572750316135 186.0 185.0 183.0 182.0 182.0 182.0 182.0 182.0 182.0 182.0 182.0 182.0 182.0 182.0 182.0 182.0 182.0 182.0 182.0 182.0 182.0 182.0 182.0 182.0 182.0 182.0 182.0 182.0 182.0 182.0 182.0 182.0 182.0 182.0 182.0 182.0 182.0 182.0 182.0 182.0 182.0 182.0 182.0 182.0 182.0 182.0 182.0 182.0 182.0 182.0 182.0 182.0 182.0 182.0 182.0 182.0 182.0 182.0 182.0 182.0 182.0 182.0 182.0 182.0 182.0 182.0 182.0 182.0
209.73239963586732 212.1291704179416 212.4783788808873 211.4137936719165 205.84054758654247 203.44809688537134 202.44809688537134 202.92647576625865 202.28432439101064 201.15947405397222 197.8362275056393 197.4783788808873 197.0 197.0 197.0 197.0 197.0 197.0 197.0 196.5216211191127 196.5216211191127 195.99567991909686 195.51730103820955 196.12053025613528 197.12053025613528 197.06026512806764 197.0 197.0 197.0 197.0 197.0 197.0 197.0 197.0 199.06026512806764 199.93541479102922 202.99567991909686 204.51730103820955 207.03892215732225 207.9743369483515 207.5129809573064 205.45271582923877 205.58188624718036 205.58188624718036 205.58188624718036 205.51730103820955 205.51730103820955 205.99567991909686 206.51730103820955 206.06026512806764 203.93541479102922 201.93541479102922 199.93541479102922 198.93541479102922 197.4570359101419 196.93541479102922 197.0 197.0 197.0 197.0 197.0 196.93973487193236 197.0 197.0 197.0 197.41811375281964 197.8362275056393 198.25434125845896 197.23731836861674 197.41811375281964 196.93973487193236 197.0 197.0 197.0 197.0 197.0 197.0 197.0 197.0 197.0 196.0 194.0 192.0 191.5216211191127 191.51730103820955 192.51730103820955 191.51730103820955 190.99567991909686 190.06026512806764 188.0 186.4570359101419 185.4570359101419 184.99567991909686 184.51730103820955 183.51730103820955 182.39245070117113 182.39245070117113 182.39245070117113 182.39245070117113 182.91407182028382 184.39245070117113 186.9743369483515 190.03892215732225 192.03892215732225 192.45271582923877 189.51730103820955 188.51730103820955 187.51730103820955 187.51730103820955 187.51730103820955 187.51730103820955 187.45271582923877 189.0991872853899 188.9743369483515 189.0991872853899 189.0991872853899 187.51730103820955 187.51730103820955 187.51730103820955 187.51730103820955 187.45271582923877 187.9743369483515 188.9743369483515 189.9743369483515 191.5129809573064 192.0991872853899 192.0346020764191 193.0346020764191 192.5129809573064 192.9786570292546 193.51730103820955 193.99567991909686 194.58188624718036 194.51730103820955 195.51730103820955 196.58188624718036 197.06026512806764 196.64215137524798 196.64215137524798 196.64215137524798 197.12053025613528 197.12053025613528 197.12053025613528 197.06026512806764 197.06026512806764 197.0 197.0 197.0 196.93541479102922 197.06026512806764 194.5129809573064 195.57756616627717 196.64215137524798 197.12053025613528 197.06026512806764 197.06026512806764 197.06026512806764 197.06026512806764 197.06026512806764 197.06026512806764 197.06026512806764 197.06026512806764 197.0 197.5862063280835 197.0 197.0 197.0 197.06026512806764 194.58188624718036 193.51730103820955 193.51730103820955 192.51730103820955 192.51730103820955 192.51730103820955 192.51730103820955 192.58188624718036 191.99567991909686 192.51730103820955 191.99567991909686 191.58188624718036 190.51730103820955 189.51730103820955 188.51730103820955 187.58188624718036 186.06026512806764 185.0 183.0 182.0 182.0 182.0 182.0 182.0 182.0 182.0 182.0 182.0 182.0 182.0 182.0 182.0 182.0 182.0 182.0 182.0 182.0 182.0 182.0 182.0 182.0 182.0 182.0 182.0 182.0 182.0 182.0 182.0 182.0 182.0 182.0 182.0 182.0 182.0 182.0 182.0 182.0 182.0 182.0 182.0 182.0 182.0 182.0 182.0 182.0 182.0 182.0 182.0 182.0 182.0 182.0 182.0 182.0 182.0 182.0 182.0 182.0 182.0 182.0 182.0 182.0 182.0 182.0 182.0
